ply
format ascii 1.0
element vertex 1266
property float x
property float y
property float z
property uchar red
property uchar green
property uchar blue
end_header
-0.006175 -0.076356 0.285662 153 0 76
0.141077 -0.076356 0.382820 153 0 76
-0.327346 -0.089064 -0.079897 76 0 153
-0.260247 -0.089064 -0.296957 76 0 153
-0.075680 0.137172 -0.335212 0 127 127
0.070896 0.050721 0.188688 153 0 76
0.304017 -0.076356 0.107130 153 0 76
-0.298626 -0.761091 -0.237716 0 127 127
0.290527 0.050721 -0.028365 153 0 76
0.249241 -0.076356 -0.305949 153 0 76
0.130058 -0.076356 -0.252905 153 0 76
-0.323622 0.030255 -0.281087 153 0 76
0.013340 0.050721 0.021518 153 0 76
0.111928 -0.089064 0.302490 76 0 153
-0.215055 -0.089064 0.058897 76 0 153
0.128697 0.735991 -0.365989 0 127 127
0.066794 -0.089064 -0.075993 76 0 153
-0.049377 -0.008658 0.508518 153 0 76
-0.294383 -0.696494 0.407701 76 0 153
0.146880 -0.076356 0.291315 153 0 76
0.353081 -0.076356 -0.234577 153 0 76
-0.297082 0.027638 0.486091 153 0 76
-0.314676 -0.749956 0.458595 76 0 153
0.338211 0.038839 -0.152903 153 0 76
-0.011021 0.050721 0.230990 153 0 76
-0.075030 0.153343 -0.351355 76 153 0
0.262069 0.633088 -0.322131 0 127 127
0.321413 -0.693220 -0.266326 76 153 0
0.289188 -0.399868 0.439156 153 0 76
-0.344597 -0.089064 -0.308536 76 0 153
0.182644 -0.089064 0.050354 76 0 153
-0.256158 -0.076356 0.446370 153 0 76
0.003420 -0.039727 0.178731 76 0 153
-0.297032 -0.759086 0.407177 76 0 153
-0.062613 0.327852 -0.351871 76 153 0
-0.000656 0.129432 -0.362684 0 127 127
-0.083878 0.039755 -0.312001 153 0 76
-0.122372 0.802156 -0.341853 0 127 127
0.343111 0.027774 -0.318679 0 255 0
-0.380177 -0.025525 0.477612 76 0 153
-0.057728 -0.089064 0.264450 76 0 153
-0.393918 0.010506 0.232080 153 0 76
0.059745 0.122838 -0.335314 0 127 127
0.275135 -0.189715 -0.311897 76 153 0
-0.351383 0.016405 -0.242780 153 0 76
0.333684 -0.689751 0.460720 153 0 76
-0.217681 -0.089064 -0.015634 76 0 153
-0.402090 -0.062196 -0.015698 76 0 153
-0.290227 0.216041 -0.350824 0 127 127
-0.284344 -0.475609 -0.225083 0 127 127
-0.238552 0.233913 -0.356924 0 127 127
0.279103 0.361401 -0.336093 76 153 0
-0.157995 -0.027213 0.524415 76 0 153
0.147388 0.246943 -0.316405 76 153 0
-0.000339 -0.089064 -0.201613 76 0 153
0.151898 0.050721 0.186940 153 0 76
-0.342132 -0.089064 -0.067873 76 0 153
-0.397936 -0.038881 -0.028325 76 0 153
-0.250172 -0.361663 -0.296627 0 127 127
-0.303775 -0.089064 0.194609 76 0 153
-0.336953 -0.089064 -0.328082 76 0 153
-0.258046 0.009890 -0.328864 153 0 76
-0.274508 -0.499094 -0.303936 0 127 127
-0.343553 -0.535620 0.458903 76 0 153
-0.289033 0.050721 0.420339 153 0 76
-0.051633 -0.076356 0.286850 153 0 76
0.020953 0.731874 -0.352604 76 153 0
-0.291911 -0.064275 0.508363 153 0 76
-0.270949 -0.076356 0.316047 153 0 76
-0.314793 -0.690381 -0.264083 0 127 127
-0.021007 -0.063681 -0.330191 153 0 76
-0.166523 0.010399 0.506593 153 0 76
-0.368406 0.007741 -0.130561 153 0 76
-0.155146 -0.089064 -0.301202 76 0 153
-0.169223 0.050721 0.231154 153 0 76
0.350508 -0.238455 0.384647 153 0 76
0.215076 -0.089064 -0.107845 76 0 153
-0.055813 -0.076356 -0.156514 153 0 76
0.309180 0.050721 0.058250 153 0 76
0.102471 -0.089064 -0.268438 76 0 153
0.156307 0.050721 0.225806 153 0 76
-0.232981 0.298541 -0.340501 76 153 0
0.319297 0.050721 0.030226 153 0 76
0.361206 -0.076356 0.226914 153 0 76
0.397994 -0.067795 0.491499 76 0 153
-0.254891 -0.089064 0.206851 76 0 153
-0.266001 0.027065 -0.320114 127 127 0
-0.230839 -0.076356 0.032526 153 0 76
0.354745 -0.076356 0.173842 153 0 76
-0.202348 0.224865 -0.343481 76 153 0
0.311675 0.050721 -0.144599 153 0 76
-0.259206 -0.726077 -0.290476 0 127 127
0.243351 0.391223 -0.340157 76 153 0
-0.391093 -0.061985 -0.169659 76 0 153
0.122821 0.439862 -0.317882 76 153 0
0.029915 0.228028 -0.320710 76 153 0
0.071237 -0.046345 0.508518 153 0 76
0.277241 0.050721 -0.116757 153 0 76
0.371728 -0.076356 0.292329 153 0 76
0.367530 -0.499428 0.437619 153 0 76
-0.124686 0.023819 0.490821 153 0 76
0.286847 -0.076356 0.240007 153 0 76
0.062469 0.618141 -0.352029 76 153 0
-0.077719 -0.076356 0.041878 153 0 76
-0.156824 0.376798 -0.315276 76 153 0
-0.342919 0.034510 -0.062634 153 0 76
0.106070 -0.076356 0.441530 153 0 76
-0.053626 0.297511 -0.352057 76 153 0
0.199556 -0.089064 -0.104819 76 0 153
0.003420 -0.036905 0.381975 76 0 153
-0.226301 0.557207 -0.309382 76 153 0
0.003420 0.038863 0.476815 153 0 76
-0.066653 -0.076356 0.424143 153 0 76
-0.265640 -0.650588 -0.296964 0 127 127
0.375083 0.039818 0.379468 153 0 76
-0.336999 -0.121748 0.473373 76 0 153
0.286051 -0.368118 0.426225 153 0 76
0.075783 0.094568 -0.368580 0 127 127
0.350190 -0.759352 0.401372 153 0 76
-0.330377 0.269593 -0.343430 0 127 127
-0.307837 -0.653263 0.458554 76 0 153
-0.247137 -0.076356 0.179747 153 0 76
0.364745 -0.038746 -0.265264 153 0 76
0.316693 0.280442 -0.348358 0 127 127
-0.219366 0.041571 -0.291632 153 0 76
-0.231679 -0.079303 -0.355606 76 0 153
-0.029593 -0.076356 0.252925 153 0 76
0.311401 -0.076356 0.325480 153 0 76
0.048002 0.050721 -0.133187 153 0 76
0.261129 -0.243439 -0.304031 76 153 0
-0.354115 0.038918 -0.090902 153 0 76
-0.328699 -0.089064 0.392586 76 0 153
0.313337 0.050721 -0.247220 153 0 76
0.251551 0.050721 0.181811 153 0 76
-0.402298 -0.025525 0.295670 76 0 153
-0.154429 0.050721 0.321631 153 0 76
-0.164268 -0.076356 -0.218011 153 0 76
0.300864 -0.398118 -0.304762 76 153 0
-0.334917 -0.857880 0.405282 76 0 153
-0.042322 -0.076356 -0.277835 153 0 76
0.361741 -0.076356 0.321950 153 0 76
-0.263914 -0.076356 0.360972 153 0 76
0.078637 -0.076356 0.198951 153 0 76
0.331525 -0.205208 -0.250406 76 153 0
-0.256423 -0.089064 0.357954 76 0 153
0.024260 0.082853 -0.369529 0 127 127
0.210314 -0.076356 0.329766 153 0 76
-0.178970 -0.089064 -0.173639 76 0 153
0.362606 -0.089064 0.058120 76 0 153
-0.148399 -0.089064 -0.042040 76 0 153
0.249271 -0.554525 -0.260054 76 153 0
-0.264605 0.050721 0.292540 153 0 76
-0.268998 -0.076356 0.171177 153 0 76
0.317968 -0.089064 -0.187548 76 0 153
-0.263284 0.604532 -0.349471 0 127 127
0.358490 -0.089064 0.456311 76 0 153
0.258441 -0.076356 0.056288 153 0 76
-0.280142 0.047939 -0.297075 153 0 76
-0.111908 0.050721 -0.232196 153 0 76
0.297926 -0.089064 -0.040661 76 0 153
0.130363 0.155669 -0.338038 0 127 127
-0.002183 -0.032993 -0.330191 153 0 76
0.205719 0.347464 -0.312049 76 153 0
-0.302390 -0.076356 -0.144128 153 0 76
0.175220 -0.089064 0.498033 76 0 153
-0.284220 0.050721 0.355471 153 0 76
0.067496 -0.089064 -0.053579 76 0 153
-0.342244 0.050721 0.232553 153 0 76
0.242007 0.270084 -0.313595 76 153 0
-0.170932 0.050721 -0.164964 153 0 76
-0.094845 0.528043 -0.350531 76 153 0
0.263758 -0.089064 -0.278202 76 0 153
0.106795 0.050721 0.434176 153 0 76
-0.143735 -0.089064 -0.184686 76 0 153
0.378374 -0.063887 -0.086763 153 0 76
-0.024511 0.130977 -0.357165 0 127 127
-0.303578 0.050721 -0.038880 153 0 76
-0.426430 -0.038308 0.406914 76 0 153
0.025494 0.050721 -0.255280 153 0 76
0.398848 -0.042257 -0.151071 76 0 153
0.236505 0.616986 -0.313024 76 153 0
0.150498 -0.076356 0.080290 153 0 76
0.029570 0.510293 -0.352485 76 153 0
-0.099300 -0.076356 0.136166 153 0 76
0.352557 -0.076356 -0.038906 153 0 76
-0.235573 -0.076356 -0.291802 153 0 76
-0.370511 -0.076356 0.213570 153 0 76
-0.365939 -0.346089 0.429572 76 0 153
0.010658 0.015593 0.500489 153 0 76
-0.015746 -0.089064 -0.284407 76 0 153
-0.379582 -0.062812 0.466054 153 0 76
-0.032562 0.050721 0.019597 153 0 76
0.093380 0.744360 -0.334462 76 153 0
0.172248 0.238236 -0.314680 76 153 0
0.034901 -0.089064 0.045262 76 0 153
-0.029601 -0.089064 0.158413 76 0 153
0.169583 -0.089064 -0.223886 76 0 153
0.342262 -0.076356 0.008666 153 0 76
0.330798 0.003604 -0.341462 0 255 0
0.207647 -0.076356 0.246227 153 0 76
-0.103380 -0.089064 0.203984 76 0 153
-0.356197 -0.076356 0.457577 153 0 76
-0.311912 -0.076356 0.228174 153 0 76
-0.234141 -0.133876 -0.284251 0 127 127
-0.333083 -0.177370 0.378940 76 0 153
-0.118006 -0.076356 0.273695 153 0 76
0.265293 0.100098 -0.321063 0 255 0
-0.272288 -0.076356 0.429711 153 0 76
0.027694 0.044030 0.484010 153 0 76
-0.025289 0.045786 0.465005 153 0 76
-0.213914 0.050721 -0.166564 153 0 76
-0.333535 0.031289 0.470860 153 0 76
0.089683 -0.076356 0.126648 153 0 76
0.140612 -0.089064 0.287291 76 0 153
0.376915 -0.054041 0.509046 76 0 153
-0.062792 -0.089064 0.364881 76 0 153
0.289039 -0.076356 -0.251018 153 0 76
-0.366650 0.024934 0.451801 153 0 76
-0.021419 -0.076356 0.484324 153 0 76
-0.122612 -0.076356 -0.242187 153 0 76
0.140183 -0.076356 0.008831 153 0 76
-0.278330 -0.089064 -0.106369 76 0 153
0.283920 -0.370157 -0.307934 76 153 0
0.211127 -0.076356 -0.044137 153 0 76
-0.179145 -0.089064 -0.142382 76 0 153
0.012515 0.050721 -0.124508 153 0 76
-0.034747 -0.076356 -0.145350 153 0 76
0.294733 -0.457431 0.447658 153 0 76
-0.059555 0.119664 -0.368904 0 127 127
0.358351 -0.089064 0.120605 76 0 153
0.283571 -0.076356 0.131391 153 0 76
-0.295454 0.050721 0.440683 153 0 76
-0.068961 -0.089064 0.339079 76 0 153
0.055931 -0.089064 0.031938 76 0 153
0.320557 -0.283385 -0.295133 76 153 0
0.005951 0.050721 -0.097687 153 0 76
0.219827 -0.076356 -0.007380 153 0 76
0.368677 -0.089064 0.368556 76 0 153
-0.340728 -0.089064 0.118451 76 0 153
-0.040744 -0.089064 0.323623 76 0 153
-0.035499 0.403470 -0.320539 76 153 0
-0.267447 -0.188313 -0.218723 0 127 127
0.081560 -0.076356 -0.154172 153 0 76
0.270668 -0.089064 -0.067938 76 0 153
0.137339 0.416745 -0.348871 76 153 0
0.323893 -0.178898 0.473689 153 0 76
0.181703 -0.089064 0.175804 76 0 153
-0.105059 0.690865 -0.318512 76 153 0
-0.143230 0.222622 -0.347988 76 153 0
0.041218 -0.089064 0.195565 76 0 153
0.221602 -0.089064 0.287191 76 0 153
-0.362197 -0.089064 -0.258806 76 0 153
-0.005747 -0.089064 0.379255 76 0 153
-0.054394 0.050721 -0.125980 153 0 76
0.231299 -0.089064 0.473435 76 0 153
-0.297951 0.364916 -0.340053 0 127 127
-0.185680 0.033415 -0.301216 153 0 76
0.329795 -0.036897 -0.316229 153 0 76
0.321039 -0.089064 0.122530 76 0 153
0.139995 -0.076356 0.352720 153 0 76
0.237076 -0.076356 0.397987 153 0 76
0.297305 -0.080928 -0.354733 76 0 153
-0.237601 0.029017 -0.306385 153 0 76
0.326821 -0.076356 -0.204473 153 0 76
-0.311155 -0.281552 -0.232225 0 127 127
0.000777 -0.089064 0.040048 76 0 153
0.236399 0.032817 0.480246 153 0 76
0.013040 0.774265 -0.369685 0 127 127
-0.087216 0.163159 -0.350848 76 153 0
-0.249227 0.199414 -0.355873 0 127 127
-0.101017 0.079385 -0.352620 0 127 127
0.316637 0.022194 -0.318721 153 0 76
-0.009222 -0.076356 0.069409 153 0 76
-0.061092 0.050721 0.267672 153 0 76
-0.384694 -0.089064 0.390197 76 0 153
0.378518 0.012895 -0.016570 153 0 76
0.095126 0.017820 -0.327745 153 0 76
-0.184082 0.672999 -0.319812 76 153 0
0.050828 0.050721 0.233867 153 0 76
0.346334 0.049260 -0.010533 153 0 76
-0.314447 -0.058329 -0.321197 153 0 76
-0.203413 -0.089064 0.105891 76 0 153
-0.358710 -0.199277 0.395497 76 0 153
-0.345372 -0.076356 0.205367 153 0 76
0.195926 0.183418 -0.361724 0 127 127
-0.337229 -0.103461 0.377975 76 0 153
-0.187256 0.050721 0.326419 153 0 76
0.060672 0.050721 -0.265940 153 0 76
0.003420 -0.060223 0.120720 76 0 153
0.098239 -0.089064 0.070674 76 0 153
0.368627 -0.076356 0.270447 153 0 76
-0.213491 -0.089064 0.340028 76 0 153
0.222780 -0.089064 0.448231 76 0 153
-0.200231 0.629196 -0.343687 76 153 0
0.365520 -0.089064 0.408345 76 0 153
0.378601 -0.034789 -0.083585 153 0 76
-0.216080 0.515769 -0.310376 76 153 0
0.045208 -0.089064 0.143750 76 0 153
0.315590 -0.673484 -0.244718 76 153 0
-0.330284 -0.518352 0.464648 76 0 153
-0.174604 0.553282 -0.314042 76 153 0
-0.190724 0.050721 0.162796 153 0 76
0.253357 0.725417 -0.348089 0 127 127
0.022352 0.679358 -0.320817 76 153 0
0.219878 -0.076356 -0.235423 153 0 76
-0.064958 -0.089064 -0.293972 76 0 153
-0.394104 -0.011918 0.229212 153 0 76
0.318192 0.521665 -0.348164 0 127 127
0.418974 -0.066527 0.124908 76 0 153
0.237225 -0.076356 0.091011 153 0 76
-0.419097 -0.077145 0.222392 76 0 153
0.278710 -0.349479 -0.307834 76 153 0
-0.333034 -0.076356 0.099597 153 0 76
0.007493 -0.076356 0.262496 153 0 76
-0.366613 -0.091164 0.401615 76 0 153
0.021970 -0.089064 -0.180739 76 0 153
-0.041676 -0.076356 0.235134 153 0 76
-0.218861 0.050721 0.387120 153 0 76
0.318493 -0.139035 -0.228118 76 153 0
-0.191922 -0.076356 0.026304 153 0 76
0.240326 -0.089064 -0.170137 76 0 153
0.152863 0.617728 -0.316025 76 153 0
-0.324408 -0.230210 -0.251377 0 127 127
0.268195 -0.767931 -0.238481 76 153 0
-0.343682 -0.076356 -0.265510 153 0 76
0.327236 0.574518 -0.313172 0 127 127
0.234728 -0.076356 0.437737 153 0 76
0.234078 -0.089064 -0.344252 76 0 153
-0.051333 0.365652 -0.352089 76 153 0
-0.143609 -0.089064 -0.326353 76 0 153
-0.401991 -0.063342 0.339625 153 0 76
-0.332760 -0.629667 0.461326 76 0 153
0.396190 0.024498 0.238509 153 0 76
-0.091639 0.278792 -0.318894 76 153 0
0.038385 -0.076356 -0.323439 153 0 76
0.416962 -0.034166 0.197793 76 0 153
0.199107 -0.089064 0.473726 76 0 153
0.112075 0.050721 -0.105508 153 0 76
-0.244369 0.049703 0.468844 153 0 76
-0.304007 -0.303772 -0.302820 0 127 127
-0.273027 -0.089064 -0.264205 0 127 127
0.299319 -0.042255 -0.344345 0 255 0
0.014251 -0.076356 0.425224 153 0 76
-0.292807 -0.841474 0.424933 76 0 153
0.178071 0.050721 -0.158388 153 0 76
-0.260249 -0.121055 -0.219728 0 127 127
0.351703 -0.076356 0.383294 153 0 76
-0.344297 -0.089064 0.015660 76 0 153
0.099284 0.233255 -0.350630 76 153 0
-0.166004 0.050721 -0.044580 153 0 76
-0.257095 -0.440062 -0.299125 0 127 127
0.280334 -0.076356 -0.275083 153 0 76
-0.204674 -0.089064 0.485833 76 0 153
0.295167 -0.619471 0.415174 153 0 76
0.129675 -0.076356 -0.026017 153 0 76
-0.277942 0.050721 0.266370 153 0 76
0.094496 -0.076356 0.250260 153 0 76
0.145072 -0.089064 0.480516 76 0 153
0.308924 0.050721 0.365161 153 0 76
0.020931 -0.089064 0.273735 76 0 153
0.031027 -0.089064 0.436482 76 0 153
-0.171045 -0.089064 0.506370 76 0 153
0.257086 0.593390 -0.338821 76 153 0
-0.328872 -0.278946 0.470952 76 0 153
-0.151712 -0.089064 0.235856 76 0 153
0.224282 -0.089064 0.261410 76 0 153
-0.048958 0.050721 -0.247456 153 0 76
-0.075382 -0.076356 0.299783 153 0 76
0.054460 0.354754 -0.320372 76 153 0
-0.105185 -0.076356 -0.227702 153 0 76
-0.092456 0.050721 0.285538 153 0 76
-0.015378 0.201310 -0.352587 76 153 0
0.340723 -0.268873 0.470550 153 0 76
0.374082 -0.076356 0.119523 153 0 76
0.383384 -0.076356 0.352343 153 0 76
-0.332164 -0.076356 -0.175046 153 0 76
0.081793 -0.076356 -0.229286 153 0 76
-0.097902 -0.089064 0.306340 76 0 153
0.066338 -0.089064 0.317158 76 0 153
0.362341 0.034901 0.446977 153 0 76
0.348111 -0.691947 0.397486 153 0 76
0.083061 0.200938 -0.319533 76 153 0
0.177919 -0.089064 0.367322 76 0 153
-0.364269 -0.245930 0.445611 76 0 153
0.036430 0.050721 0.368197 153 0 76
-0.009274 -0.076356 -0.315014 153 0 76
-0.245910 0.015101 -0.322740 153 0 76
-0.215195 -0.089064 0.312594 76 0 153
-0.349499 -0.622152 0.451137 76 0 153
0.302771 0.465208 -0.333126 76 153 0
-0.034269 -0.076356 0.205886 153 0 76
0.002848 -0.076356 0.500497 153 0 76
-0.103199 -0.089064 -0.164355 76 0 153
0.003420 -0.078758 -0.238950 76 0 153
0.104718 0.205699 -0.350404 76 153 0
-0.249973 -0.089064 0.002438 76 0 153
0.295919 -0.574845 0.442874 153 0 76
-0.264540 -0.076356 -0.177724 153 0 76
0.239028 0.522474 -0.340578 76 153 0
0.027827 -0.043632 -0.330191 153 0 76
-0.403218 0.007016 0.356807 153 0 76
-0.325446 -0.177845 -0.250448 0 127 127
-0.338233 -0.089064 -0.239036 76 0 153
-0.397384 -0.073763 -0.081589 76 0 153
-0.130899 0.777853 -0.332409 0 127 127
-0.351221 -0.810269 0.413425 76 0 153
-0.009567 -0.076356 -0.082446 153 0 76
0.036428 -0.089064 0.512490 76 0 153
0.290209 0.050721 -0.167983 153 0 76
0.287541 0.005027 -0.330191 153 0 76
0.192547 0.050721 -0.213705 153 0 76
-0.351453 -0.089064 0.088014 76 0 153
-0.128846 0.050721 0.115082 153 0 76
-0.391343 0.026599 0.283668 153 0 76
-0.273137 -0.089064 0.065697 76 0 153
0.307618 -0.181241 0.468946 153 0 76
-0.243370 0.411606 -0.307720 76 153 0
-0.167859 -0.076356 0.498185 153 0 76
0.118936 0.394472 -0.349813 76 153 0
0.298192 0.049483 0.460507 153 0 76
-0.066645 0.050721 -0.263785 153 0 76
-0.245232 -0.558595 -0.279550 0 127 127
-0.291842 -0.482185 -0.303172 0 127 127
-0.042822 -0.076356 0.259843 153 0 76
0.239284 0.031719 -0.303210 153 0 76
-0.310813 -0.076356 0.152592 153 0 76
0.314945 -0.199192 0.380514 153 0 76
-0.021013 0.157886 -0.323596 76 153 0
0.322057 0.341255 -0.313919 0 127 127
0.270874 -0.076356 0.287739 153 0 76
-0.094157 0.020890 -0.315937 153 0 76
0.391185 -0.076356 0.433030 153 0 76
-0.253439 -0.089064 0.337258 76 0 153
-0.305192 0.006548 -0.315190 127 127 0
0.288752 -0.089064 -0.115657 76 0 153
0.334688 -0.839706 0.396828 153 0 76
0.247468 0.465333 -0.307987 76 153 0
-0.336440 0.050721 0.168654 153 0 76
0.187158 0.116197 -0.329098 0 127 127
0.064553 0.050721 0.288054 153 0 76
-0.277007 0.050721 0.328908 153 0 76
0.080510 0.468723 -0.351411 76 153 0
-0.236431 -0.027683 0.521296 76 0 153
0.086297 -0.076356 0.092318 153 0 76
-0.078593 -0.076356 -0.108017 153 0 76
0.349180 0.029159 -0.159015 153 0 76
0.221035 0.363219 -0.342329 76 153 0
0.060070 0.050721 0.219616 153 0 76
-0.246758 -0.035489 -0.330191 153 0 76
-0.292626 0.162371 -0.350524 127 127 0
0.316099 -0.089064 -0.278286 76 0 153
0.204217 0.410255 -0.312196 76 153 0
-0.361372 -0.046035 -0.229043 153 0 76
-0.059214 0.815021 -0.368134 0 127 127
-0.028613 0.110846 -0.369374 0 127 127
-0.176012 -0.089064 0.387617 76 0 153
-0.309656 -0.821591 -0.254563 0 127 127
-0.197977 -0.089064 0.446161 76 0 153
0.207408 0.050721 -0.231357 153 0 76
0.323967 -0.711515 0.393353 153 0 76
0.437507 -0.071271 0.386987 76 0 153
0.175318 -0.076356 0.009579 153 0 76
0.025277 0.050721 0.242018 153 0 76
0.153475 -0.089064 0.447899 76 0 153
-0.310513 -0.089064 -0.134892 76 0 153
0.100912 -0.076356 0.186602 153 0 76
-0.347040 -0.311116 0.463299 76 0 153
0.381423 0.035941 0.151593 153 0 76
-0.269574 -0.608745 -0.229622 0 127 127
0.355530 -0.446566 0.457767 153 0 76
0.003420 -0.058948 -0.220466 76 0 153
0.240579 0.241120 -0.338231 0 127 127
0.341077 -0.089064 -0.325132 76 0 153
-0.016335 -0.076356 0.139291 153 0 76
0.350491 -0.499689 0.459960 153 0 76
-0.309794 0.611527 -0.315294 0 127 127
0.332072 -0.076356 -0.039227 153 0 76
-0.178942 0.727195 -0.362483 0 127 127
-0.320216 -0.454993 -0.270301 0 127 127
0.354323 0.023223 -0.280892 153 0 76
0.260941 -0.089064 0.292886 76 0 153
0.308339 -0.076356 -0.313521 153 0 76
-0.298357 -0.749753 0.448347 76 0 153
-0.076974 -0.089064 -0.263905 76 0 153
-0.114290 0.791531 -0.366653 0 127 127
0.027202 -0.076356 0.145464 153 0 76
0.294271 0.683802 -0.319722 0 127 127
-0.332291 -0.671335 0.460387 76 0 153
-0.396050 -0.031115 0.036706 76 0 153
0.340631 0.049739 -0.055453 153 0 76
-0.382667 -0.089064 0.077064 76 0 153
-0.306530 -0.857880 0.425430 76 0 153
0.357564 -0.089064 0.336412 76 0 153
-0.284447 -0.089064 -0.012820 76 0 153
0.098740 -0.058495 -0.330191 153 0 76
0.210230 0.050721 0.315020 153 0 76
0.235545 -0.076356 -0.012035 153 0 76
-0.153269 0.413548 -0.315522 76 153 0
-0.367055 0.022331 -0.088484 153 0 76
0.270398 -0.089064 0.404083 76 0 153
-0.410596 -0.075904 0.103388 76 0 153
0.156470 -0.039397 -0.330191 153 0 76
-0.338404 -0.076134 0.497954 153 0 76
-0.265396 -0.284624 -0.308099 0 127 127
0.014989 -0.089064 -0.323817 76 0 153
-0.267140 0.008735 -0.353726 127 127 0
0.009886 0.550904 -0.320989 76 153 0
0.188886 0.050721 0.179351 153 0 76
0.181864 -0.089064 -0.283371 76 0 153
0.238177 0.050721 -0.184738 153 0 76
-0.205635 0.747249 -0.326408 0 127 127
0.343776 -0.076356 0.475301 153 0 76
0.267723 0.275902 -0.325908 0 127 127
0.305185 -0.089064 0.284239 76 0 153
-0.347924 -0.039746 0.518788 76 0 153
0.054021 -0.076356 -0.260265 153 0 76
-0.304698 -0.089064 0.426161 76 0 153
0.257002 -0.831822 -0.268537 76 153 0
0.164497 -0.023226 0.508518 153 0 76
-0.392771 -0.075595 0.210550 153 0 76
0.037280 -0.089064 0.464490 76 0 153
0.334499 -0.089064 -0.001344 76 0 153
-0.221272 0.050721 0.229113 153 0 76
-0.193621 -0.076356 -0.302946 153 0 76
-0.317828 -0.089064 0.434825 76 0 153
0.197479 0.729656 -0.361584 0 127 127
-0.243652 0.050498 -0.284670 153 0 76
-0.106411 -0.089064 0.499482 76 0 153
0.148065 0.486288 -0.316358 76 153 0
-0.198642 -0.076356 -0.259488 153 0 76
-0.364302 0.362763 -0.332032 0 127 127
-0.367149 -0.154377 0.444665 76 0 153
0.071865 -0.089064 -0.217780 76 0 153
0.037341 0.050721 0.124234 153 0 76
0.262770 0.050721 -0.007375 153 0 76
0.365717 -0.089064 -0.077526 76 0 153
-0.343751 -0.381664 0.463513 76 0 153
-0.362188 -0.006219 -0.217618 153 0 76
-0.095207 -0.089064 0.114301 76 0 153
-0.075017 -0.089064 0.279318 76 0 153
-0.358889 0.020843 -0.213005 153 0 76
0.167367 -0.059363 0.508518 153 0 76
0.153742 0.453636 -0.315964 76 153 0
0.297525 -0.771271 0.427495 153 0 76
0.277051 -0.429948 -0.224614 76 153 0
0.357810 -0.076356 0.348992 153 0 76
0.295824 0.423817 -0.333997 76 153 0
0.354692 0.572681 -0.310474 0 127 127
0.022041 -0.089064 -0.264906 76 0 153
0.091672 -0.089064 -0.295036 76 0 153
0.254902 -0.076356 0.321382 153 0 76
0.203116 -0.089064 0.401768 76 0 153
-0.308415 0.439655 -0.326978 0 127 127
-0.230167 0.560888 -0.340775 76 153 0
0.291143 -0.049487 0.508486 153 0 76
-0.111122 -0.089064 -0.280190 76 0 153
0.074401 0.568663 -0.319900 76 153 0
0.084650 0.082551 -0.368211 0 127 127
0.170105 -0.089064 0.286542 76 0 153
-0.018885 -0.076356 0.292540 153 0 76
0.408250 -0.062059 0.423667 153 0 76
0.310331 -0.089064 0.487008 76 0 153
-0.136871 -0.076356 0.262411 153 0 76
-0.077769 -0.076356 0.151895 153 0 76
-0.230015 -0.130255 -0.263976 0 127 127
-0.237353 0.050721 -0.086166 153 0 76
0.003420 -0.041202 0.163583 76 0 153
-0.327744 0.048170 -0.049769 153 0 76
0.217247 -0.076356 -0.117333 153 0 76
-0.274479 0.301897 -0.326303 0 127 127
-0.269809 0.514857 -0.336401 76 153 0
0.337949 -0.076356 0.096479 153 0 76
-0.352764 -0.089064 0.235861 76 0 153
-0.319064 -0.857880 0.412677 76 0 153
0.239689 0.520678 -0.308744 76 153 0
-0.156193 0.242887 -0.315320 76 153 0
0.151032 -0.089064 -0.261934 76 0 153
0.335154 -0.441956 0.466860 153 0 76
-0.257770 -0.089064 0.282718 76 0 153
0.019152 0.050721 -0.039920 153 0 76
-0.216621 0.382282 -0.342093 76 153 0
0.139098 0.050721 -0.239212 153 0 76
-0.299163 0.654131 -0.349699 0 127 127
0.247190 -0.459450 -0.274263 76 153 0
-0.095116 0.650587 -0.350520 76 153 0
-0.113570 -0.076356 0.042006 153 0 76
0.225144 -0.089064 0.428776 76 0 153
0.381261 0.022508 0.180414 153 0 76
0.306049 -0.089064 -0.112438 76 0 153
0.420468 -0.089064 0.311125 76 0 153
-0.286929 -0.076356 -0.290578 153 0 76
0.051568 0.050721 -0.218958 153 0 76
-0.294797 -0.857880 -0.255187 0 127 127
0.137740 0.352600 -0.317075 76 153 0
0.275581 -0.266796 -0.220584 76 153 0
-0.427237 -0.063916 0.336355 76 0 153
0.200338 0.050721 0.422285 153 0 76
-0.248292 0.062752 -0.322808 127 127 0
0.302404 0.534998 -0.317430 0 127 127
-0.340516 -0.787620 0.453296 76 0 153
0.344498 0.088953 -0.328651 0 255 0
0.156433 -0.089064 -0.315739 76 0 153
0.038490 -0.089064 -0.058589 76 0 153
0.232397 -0.076356 0.265532 153 0 76
0.139001 -0.089064 0.253849 76 0 153
-0.161764 0.104155 -0.330418 0 127 127
0.357384 -0.089064 -0.294697 76 0 153
0.085353 -0.076356 0.220387 153 0 76
0.203555 -0.011617 0.508518 153 0 76
0.271795 0.050721 -0.065430 153 0 76
-0.064292 0.578308 -0.320036 76 153 0
0.198099 0.227943 -0.315966 76 153 0
0.058226 -0.076356 0.209197 153 0 76
0.267376 -0.812011 -0.288412 76 153 0
0.091775 0.507603 -0.350943 76 153 0
0.271772 0.557994 -0.309023 76 153 0
-0.008739 0.758137 -0.356947 0 127 127
0.166146 -0.076356 0.379162 153 0 76
0.397708 -0.000802 0.183904 153 0 76
0.255162 -0.616367 -0.282729 76 153 0
0.250561 -0.076356 0.463194 153 0 76
0.021596 0.581525 -0.320827 76 153 0
-0.090215 -0.089064 0.498213 76 0 153
-0.360401 -0.071326 -0.242627 153 0 76
0.223708 -0.089064 0.014528 76 0 153
-0.147417 -0.089064 0.382110 76 0 153
-0.183131 -0.076356 -0.023617 153 0 76
-0.034372 0.096118 -0.369295 0 127 127
0.156730 -0.076356 -0.040832 153 0 76
0.139118 -0.089064 -0.230174 76 0 153
-0.121495 0.802705 -0.361317 0 127 127
-0.010259 -0.089064 0.466625 76 0 153
-0.362028 -0.509191 0.425143 76 0 153
-0.043434 -0.076356 -0.099673 153 0 76
0.269043 -0.000260 0.508518 153 0 76
-0.293500 -0.076356 -0.311721 153 0 76
-0.383895 0.029396 0.204678 153 0 76
-0.275388 0.561309 -0.312942 76 153 0
-0.304260 -0.490172 -0.233505 0 127 127
0.324437 0.369275 -0.347300 0 127 127
-0.237144 0.211949 -0.357069 0 127 127
-0.211452 0.184319 -0.359571 0 127 127
0.155039 -0.089064 -0.343776 76 0 153
-0.039024 -0.089064 -0.068332 76 0 153
0.330274 -0.076356 0.381173 153 0 76
-0.354038 0.496969 -0.341677 0 127 127
-0.168828 -0.076440 -0.355606 76 0 153
0.298565 -0.640687 0.408554 153 0 76
0.090165 -0.046857 -0.330191 153 0 76
-0.217269 -0.089064 -0.284529 76 0 153
0.227802 -0.076356 0.367521 153 0 76
0.286502 -0.326387 0.437934 153 0 76
-0.299214 -0.194443 0.384051 76 0 153
0.108720 0.010765 -0.327835 153 0 76
-0.092861 -0.076356 -0.109115 153 0 76
-0.152734 0.714298 -0.346600 0 127 127
0.254223 -0.181935 -0.300940 76 153 0
-0.338058 -0.076356 0.073499 153 0 76
0.142130 0.492143 -0.348539 76 153 0
0.322958 0.465967 -0.313800 0 127 127
-0.353317 0.563486 -0.318185 0 127 127
0.096402 -0.089064 0.302102 76 0 153
-0.081601 0.665195 -0.319317 76 153 0
-0.173049 0.022940 0.491854 153 0 76
-0.366153 -0.076311 -0.162103 153 0 76
-0.333543 0.515538 -0.344861 0 127 127
0.387130 0.007252 0.035822 153 0 76
0.166159 0.050721 -0.074016 153 0 76
-0.427140 -0.054444 0.425396 76 0 153
-0.220442 -0.076356 -0.296517 153 0 76
-0.283487 -0.415042 -0.223423 0 127 127
0.120662 -0.076356 -0.118856 153 0 76
0.260942 -0.089064 0.249652 76 0 153
-0.020345 0.647302 -0.352518 76 153 0
0.155038 -0.089064 -0.229436 76 0 153
0.102386 0.022334 -0.314240 153 0 76
-0.284672 -0.089064 0.240148 76 0 153
-0.042001 0.553017 -0.352218 76 153 0
0.364724 0.032678 0.116656 153 0 76
0.060441 0.067929 -0.337384 0 127 127
0.092248 -0.089064 0.144415 76 0 153
0.268334 -0.010753 -0.330191 153 0 76
-0.059724 0.085247 -0.368899 0 127 127
0.040019 -0.076356 -0.022255 153 0 76
-0.351559 -0.758103 0.410689 76 0 153
-0.266353 -0.076356 -0.310276 153 0 76
-0.003825 -0.089064 -0.259490 76 0 153
0.147456 -0.089064 0.152657 76 0 153
-0.371820 -0.060840 -0.299576 76 0 153
-0.332879 0.023792 -0.345448 127 127 0
0.325316 -0.392892 -0.247731 76 153 0
-0.096148 -0.076356 0.198205 153 0 76
0.023236 -0.089064 -0.021797 76 0 153
0.271583 -0.089064 0.060657 76 0 153
0.273901 -0.089064 -0.034446 76 0 153
0.308601 -0.090833 0.379815 153 0 76
-0.168789 -0.076356 0.477842 153 0 76
0.338544 -0.076356 0.181207 153 0 76
-0.317453 -0.076356 0.129767 153 0 76
-0.091011 -0.089064 -0.333381 76 0 153
-0.397112 -0.032853 0.271324 153 0 76
0.139924 0.768062 -0.365665 0 127 127
-0.391133 -0.076356 0.248996 153 0 76
0.089845 0.050721 -0.260547 153 0 76
0.332885 0.597350 -0.312268 0 127 127
-0.325068 0.260430 -0.313066 0 127 127
0.393547 -0.089064 0.275473 76 0 153
0.316493 0.228566 -0.323353 0 127 127
0.004020 0.063870 -0.351564 0 127 127
-0.368492 0.048182 0.345418 153 0 76
0.291472 -0.539549 0.430877 153 0 76
-0.116446 0.050721 0.228197 153 0 76
0.376371 -0.031876 -0.114807 153 0 76
-0.405421 -0.028281 0.139177 76 0 153
0.321203 0.635753 -0.314144 0 127 127
-0.307174 0.222465 -0.334319 0 127 127
-0.001699 0.209427 -0.321007 76 153 0
0.327380 -0.076356 0.475786 153 0 76
0.323603 0.050721 0.169939 153 0 76
0.086726 -0.076356 -0.211289 153 0 76
-0.035714 0.050721 -0.060065 153 0 76
-0.132382 -0.053775 0.508518 153 0 76
0.159506 0.050721 -0.102691 153 0 76
-0.366370 0.029845 -0.036620 153 0 76
-0.231753 -0.089064 -0.039353 76 0 153
0.146493 -0.089064 0.205238 76 0 153
0.305546 -0.130109 -0.219919 76 153 0
0.178309 -0.065216 -0.330191 153 0 76
-0.290958 0.050721 0.222066 153 0 76
0.088808 -0.076356 0.064674 153 0 76
0.209436 -0.076356 0.464063 153 0 76
0.003420 -0.078899 0.356271 76 0 153
0.040430 0.050721 -0.146682 153 0 76
-0.386318 0.038096 0.347478 153 0 76
0.134271 0.026415 -0.309444 153 0 76
-0.053368 0.050721 0.368808 153 0 76
0.165074 -0.076356 0.035688 153 0 76
-0.251924 0.050721 0.129935 153 0 76
-0.235409 -0.234387 -0.279863 0 127 127
0.377780 -0.025468 -0.095084 153 0 76
0.091702 0.785162 -0.367918 0 127 127
-0.226257 0.050721 0.049741 153 0 76
0.003420 -0.076344 -0.272879 76 0 153
-0.334249 -0.089064 0.166492 76 0 153
0.299643 -0.076356 0.357255 153 0 76
0.078169 -0.076356 -0.261548 153 0 76
0.159433 -0.076356 -0.177171 153 0 76
0.055361 0.561477 -0.320362 76 153 0
0.294029 -0.795620 -0.233636 76 153 0
0.095167 -0.089064 -0.053276 76 0 153
0.359226 -0.704699 0.443986 153 0 76
0.039396 0.638593 -0.352349 76 153 0
0.120189 -0.089064 -0.029489 76 0 153
0.319500 0.050721 0.130810 153 0 76
-0.371944 -0.004371 -0.081032 153 0 76
0.191081 0.050721 -0.045659 153 0 76
-0.190161 0.688117 -0.351359 0 127 127
0.227193 0.348877 -0.309960 76 153 0
-0.263496 -0.404340 -0.226373 0 127 127
0.357789 0.030289 -0.019853 153 0 76
-0.174341 -0.089064 0.156655 76 0 153
0.044088 -0.089064 -0.185266 76 0 153
0.303786 -0.089064 0.269076 76 0 153
-0.205514 0.499045 -0.311404 76 153 0
-0.244120 -0.614503 -0.260002 0 127 127
0.397526 -0.076356 0.236985 153 0 76
-0.301002 -0.076356 0.445148 153 0 76
-0.242332 -0.089064 -0.186174 76 0 153
-0.192518 0.473977 -0.312668 76 153 0
0.281939 -0.857880 -0.275832 76 153 0
-0.214482 0.050721 0.011427 153 0 76
-0.413443 -0.027557 0.322107 76 0 153
-0.323534 -0.278676 -0.252446 0 127 127
0.384422 0.023924 0.248029 153 0 76
-0.231908 0.510173 -0.308836 76 153 0
-0.075315 0.050721 0.221432 153 0 76
0.374904 0.007556 -0.135348 153 0 76
0.289460 -0.089064 -0.012947 76 0 153
0.197588 -0.089064 0.268034 76 0 153
0.169763 0.028102 0.485788 153 0 76
0.213385 -0.076356 0.376149 153 0 76
0.211982 -0.089064 -0.265591 76 0 153
0.404882 -0.055585 -0.072375 76 0 153
-0.423162 -0.040354 0.307500 76 0 153
0.398222 -0.048889 0.191109 153 0 76
-0.150990 -0.089064 0.304982 76 0 153
-0.347663 0.025541 0.486384 153 0 76
0.169191 -0.089064 0.456732 76 0 153
-0.241237 -0.336221 -0.286386 0 127 127
0.235053 -0.076356 -0.164118 153 0 76
0.114006 -0.089064 0.186995 76 0 153
-0.220407 0.207660 -0.358699 0 127 127
0.044247 0.769605 -0.335713 0 127 127
0.017528 -0.089064 -0.341385 76 0 153
-0.009225 -0.076356 0.166593 153 0 76
-0.356668 -0.076356 -0.009776 153 0 76
-0.308113 -0.089064 -0.104684 76 0 153
0.047634 0.050721 -0.259546 153 0 76
-0.123089 0.717217 -0.349355 76 153 0
-0.175239 -0.076356 -0.273388 153 0 76
0.289652 -0.208840 -0.218064 76 153 0
0.264784 -0.089064 -0.297460 76 153 0
0.065685 -0.076356 0.040114 153 0 76
-0.161804 0.175573 -0.330810 0 127 127
-0.009126 0.739975 -0.326765 76 153 0
-0.354434 0.377654 -0.308609 0 127 127
0.358604 0.398444 -0.342031 0 127 127
0.409748 -0.011022 0.417475 153 0 76
-0.046137 0.347490 -0.352161 76 153 0
-0.360740 -0.547010 0.422794 76 0 153
-0.248364 -0.089064 -0.341556 76 0 153
-0.041785 -0.089064 -0.136916 76 0 153
0.339898 -0.076356 -0.052322 153 0 76
-0.162751 0.634456 -0.314864 76 153 0
-0.118089 -0.076356 -0.162811 153 0 76
-0.139904 -0.076356 0.287565 153 0 76
0.055710 -0.089064 0.345955 76 0 153
0.064129 0.068456 -0.366891 0 127 127
0.053593 -0.076356 0.005551 153 0 76
-0.377475 -0.069679 -0.003597 153 0 76
0.372013 0.042747 0.399999 153 0 76
-0.300328 -0.543977 0.395423 76 0 153
-0.267789 -0.089064 -0.021952 76 0 153
0.130614 -0.076356 0.495845 153 0 76
0.379549 -0.042441 -0.070313 153 0 76
-0.007331 0.353771 -0.352698 76 153 0
-0.337326 0.465771 -0.311212 0 127 127
-0.295535 -0.523274 0.398358 76 0 153
-0.132557 0.050721 0.083833 153 0 76
-0.222401 0.050721 0.406927 153 0 76
-0.344481 -0.089064 -0.094469 76 0 153
-0.367628 -0.226566 0.413285 76 0 153
0.167839 0.559422 -0.346755 76 153 0
-0.327568 0.050721 0.114488 153 0 76
-0.382576 -0.034064 -0.256030 76 0 153
-0.290176 -0.679539 -0.231318 0 127 127
0.220747 -0.033710 0.531387 76 0 153
0.008677 0.050470 -0.285138 153 0 76
-0.036932 -0.076356 -0.225913 153 0 76
-0.321552 -0.193490 -0.242072 0 127 127
-0.305479 -0.041019 -0.336609 127 127 0
-0.054701 -0.089064 0.145216 76 0 153
0.111089 0.564922 -0.350140 76 153 0
0.051893 0.258177 -0.352176 76 153 0
-0.031803 0.457570 -0.352359 76 153 0
0.316473 -0.076356 0.416277 153 0 76
0.060900 -0.076356 -0.016759 153 0 76
-0.059133 -0.089064 0.030100 76 0 153
-0.182482 -0.089064 0.077901 76 0 153
0.284636 0.050721 -0.232537 153 0 76
0.093206 0.050721 -0.086759 153 0 76
-0.293203 -0.032809 -0.328579 153 0 76
0.334364 -0.089064 -0.171691 76 0 153
-0.361683 0.429853 -0.340538 0 127 127
0.389378 0.028198 0.390666 153 0 76
-0.200460 0.039271 -0.312642 153 0 76
0.005587 0.373493 -0.321048 76 153 0
-0.153327 0.186499 -0.323899 76 153 0
-0.005283 0.678151 -0.352727 76 153 0
0.335702 -0.089064 -0.147254 76 0 153
0.014402 0.023563 -0.312795 153 0 76
-0.376321 -0.017318 -0.019752 153 0 76
0.030232 -0.089064 -0.304369 76 0 153
-0.090652 -0.076356 0.270479 153 0 76
-0.086262 -0.039041 0.530823 76 0 153
-0.399791 -0.008996 0.308834 153 0 76
0.165599 -0.076356 0.418569 153 0 76
0.235905 0.050319 0.465379 153 0 76
0.298898 0.050721 0.233595 153 0 76
0.174845 0.619394 -0.346269 76 153 0
-0.306904 -0.076356 0.066061 153 0 76
0.297630 0.324063 -0.317223 0 127 127
-0.304765 0.332764 -0.315463 0 127 127
-0.244039 -0.089064 -0.317612 76 0 153
0.237845 0.644430 -0.320739 76 153 0
0.104790 -0.025136 0.508518 153 0 76
0.077234 -0.076356 0.492241 153 0 76
0.413691 -0.078018 0.050944 76 0 153
-0.018472 -0.076356 0.317353 153 0 76
-0.124292 -0.089064 0.367041 76 0 153
0.376831 -0.089064 0.007225 76 0 153
0.099099 0.665769 -0.350638 76 153 0
-0.112574 -0.076356 0.455874 153 0 76
0.375122 0.509498 -0.307304 0 127 127
-0.215665 -0.089064 -0.068413 76 0 153
-0.227062 -0.089064 0.049856 76 0 153
-0.157197 -0.076356 0.146129 153 0 76
0.182863 -0.089064 -0.168100 76 0 153
-0.058177 0.050721 -0.177001 153 0 76
-0.200749 -0.076356 0.328117 153 0 76
0.125853 -0.089064 0.207126 76 0 153
0.418422 -0.026146 0.286376 76 0 153
-0.260656 -0.089064 0.522107 76 0 153
-0.268630 0.050721 -0.101995 153 0 76
-0.355104 -0.316624 0.395906 76 0 153
0.248375 0.682891 -0.356640 0 127 127
-0.045291 0.731417 -0.325301 76 153 0
0.002813 -0.089064 0.442614 76 0 153
-0.316993 -0.767880 0.458436 76 0 153
0.305840 -0.437737 0.392628 153 0 76
0.003420 -0.073074 0.448181 76 0 153
0.265254 -0.089064 0.042144 76 0 153
0.315345 -0.089064 -0.126743 76 0 153
0.270813 -0.089064 0.175410 76 0 153
0.027596 0.050721 0.066362 153 0 76
-0.242786 -0.589255 -0.264790 0 127 127
0.250526 -0.579947 -0.273634 76 153 0
0.373687 0.033482 0.255391 153 0 76
-0.019682 0.292469 -0.320757 76 153 0
0.077994 -0.076356 0.427401 153 0 76
-0.412817 -0.089064 0.384204 76 0 153
-0.311609 -0.668801 -0.280097 0 127 127
0.003420 -0.028202 -0.284330 76 0 153
0.404018 -0.076356 0.420795 153 0 76
0.227048 0.225810 -0.341897 0 127 127
0.003420 -0.038531 -0.166439 76 0 153
0.055193 -0.089064 0.504002 76 0 153
0.255757 -0.418411 -0.292911 76 153 0
-0.223725 0.461803 -0.309632 76 153 0
-0.019752 -0.089064 -0.253915 76 0 153
0.256135 0.050721 0.097504 153 0 76
-0.329099 -0.162270 0.377992 76 0 153
0.299675 0.050721 -0.059227 153 0 76
0.217734 -0.089064 -0.084989 76 0 153
0.124403 0.152524 -0.365194 0 127 127
-0.007482 0.585952 -0.320928 76 153 0
0.277581 0.033487 -0.301132 153 0 76
-0.240251 -0.076356 -0.273194 153 0 76
0.217433 -0.076356 0.267612 153 0 76
0.144302 0.277942 -0.348388 76 153 0
0.412037 -0.023886 0.400915 153 0 76
0.329180 -0.376557 -0.269595 76 153 0
0.384418 0.038198 0.226610 153 0 76
0.370524 -0.049480 -0.312128 76 0 153
0.198636 0.478738 -0.344508 76 153 0
-0.340728 -0.405420 0.464119 76 0 153
0.118404 -0.076356 -0.049289 153 0 76
0.155262 -0.089064 0.099619 76 0 153
-0.319960 -0.076356 0.367603 153 0 76
0.322384 0.050721 -0.132220 153 0 76
-0.239496 0.266018 -0.339867 76 153 0
-0.177422 -0.076356 -0.154938 153 0 76
-0.087450 0.050721 -0.210738 153 0 76
-0.305227 -0.017975 0.507492 153 0 76
-0.351092 0.021762 -0.158513 153 0 76
-0.384312 -0.089064 0.307124 76 0 153
-0.040082 -0.089064 0.426694 76 0 153
0.123230 -0.089064 -0.339354 76 0 153
-0.176901 0.615681 -0.345652 76 153 0
0.358985 0.033969 0.057592 153 0 76
0.247634 0.180179 -0.323921 0 127 127
-0.278325 0.580566 -0.330356 0 127 127
-0.240358 0.241338 -0.324027 0 127 127
-0.293773 0.050721 -0.235711 153 0 76
0.340274 -0.788660 0.396732 153 0 76
-0.113835 0.222220 -0.317971 76 153 0
0.287908 0.602717 -0.318643 0 127 127
0.052402 -0.025525 -0.335117 76 0 153
0.333852 -0.089064 -0.282556 76 0 153
-0.338602 -0.089064 0.407895 76 0 153
0.207996 -0.086164 -0.355606 76 0 153
0.339283 0.616601 -0.337660 0 127 127
0.152137 0.377099 -0.316076 76 153 0
0.069179 0.050721 0.019861 153 0 76
0.248280 -0.523340 -0.260937 76 153 0
0.338446 -0.171776 0.473331 153 0 76
0.163968 0.701223 -0.347024 76 153 0
0.198069 -0.089064 -0.288272 76 0 153
0.414453 -0.025525 0.305813 76 0 153
0.369601 -0.076356 0.416350 153 0 76
-0.301952 -0.106097 0.471552 76 0 153
-0.181846 0.449427 -0.345308 76 153 0
0.374838 -0.152205 0.409115 153 0 76
0.096732 -0.089064 0.433016 76 0 153
-0.283482 -0.089064 0.474704 76 0 153
0.026226 0.012595 0.504012 153 0 76
-0.014797 -0.089064 0.235324 76 0 153
0.048217 0.034552 0.495983 153 0 76
0.178707 0.050721 0.089121 153 0 76
0.124973 0.366746 -0.349562 76 153 0
-0.277212 -0.034171 -0.348411 76 0 153
-0.162248 -0.089064 0.368219 76 0 153
-0.080292 0.030393 0.483095 153 0 76
0.003420 -0.074521 -0.087422 76 0 153
0.212682 -0.076356 0.416841 153 0 76
0.398314 0.011244 0.233344 153 0 76
0.373917 0.037372 0.067471 153 0 76
-0.051547 -0.076356 0.169582 153 0 76
-0.093157 -0.089064 0.010098 76 0 153
0.097606 -0.051650 0.533933 76 0 153
0.402335 -0.025525 0.129672 76 0 153
-0.139989 -0.089064 0.473542 76 0 153
0.362598 -0.285023 0.395382 153 0 76
0.115905 -0.076356 0.003505 153 0 76
0.010350 -0.089064 0.210258 76 0 153
0.307559 -0.089064 0.196360 76 0 153
-0.073198 0.138451 -0.354885 0 127 127
0.335644 -0.036611 -0.341202 76 0 153
0.307639 -0.508209 -0.298333 76 153 0
-0.025730 0.756572 -0.352612 0 127 127
0.003420 -0.082141 0.150330 76 0 153
-0.031810 -0.089064 0.405800 76 0 153
0.017864 -0.076356 0.481888 153 0 76
0.006801 -0.076356 0.235089 153 0 76
-0.120646 0.454240 -0.349457 76 153 0
-0.272935 -0.089064 -0.324479 76 0 153
-0.307219 0.123335 -0.348689 127 127 0
0.082163 -0.089064 -0.077736 76 0 153
0.353126 -0.080224 0.522393 76 0 153
0.277925 -0.089064 0.268695 76 0 153
0.311348 0.064134 -0.349029 0 255 0
-0.209603 0.050721 0.148738 153 0 76
-0.162974 -0.013528 -0.330191 153 0 76
-0.309629 -0.134366 -0.304265 0 127 127
-0.309439 0.607480 -0.348410 0 127 127
-0.419357 -0.080524 0.449113 76 0 153
0.007420 -0.076356 -0.198576 153 0 76
-0.016961 0.050721 -0.253011 153 0 76
0.123600 -0.048857 0.533933 76 0 153
0.075530 -0.089064 -0.249204 76 0 153
0.026482 0.531061 -0.320759 76 153 0
0.226646 -0.089064 0.529479 76 0 153
-0.413837 -0.032491 0.195887 76 0 153
0.011955 -0.074196 0.533933 76 0 153
-0.353361 -0.089064 -0.229188 76 0 153
-0.380771 0.015536 0.154303 153 0 76
0.307001 -0.089064 -0.166310 76 0 153
0.361643 -0.060128 -0.322562 76 0 153
-0.168340 -0.089064 -0.017488 76 0 153
0.003420 -0.061739 0.310519 76 0 153
0.328557 0.131634 -0.331663 0 255 0
0.110538 0.367245 -0.350162 76 153 0
0.087905 -0.076356 0.506000 153 0 76
0.322676 -0.089064 0.410229 153 0 76
-0.312197 -0.189142 0.379178 76 0 153
0.241611 -0.089064 -0.034398 76 0 153
0.240042 -0.089064 0.509936 76 0 153
0.051220 -0.076356 0.357083 153 0 76
-0.347898 -0.089064 0.163538 76 0 153
0.141270 -0.076356 0.030311 153 0 76
0.315224 -0.076356 -0.269533 153 0 76
0.325353 -0.158692 -0.294312 76 153 0
0.326770 -0.233959 -0.241246 76 153 0
0.042944 0.151676 -0.352300 76 153 0
0.241896 -0.089064 0.173806 76 0 153
-0.117771 -0.089064 0.126173 76 0 153
0.115539 0.050721 -0.058061 153 0 76
-0.244453 0.050721 0.431077 153 0 76
-0.417214 -0.031372 0.255251 76 0 153
-0.117366 -0.068952 0.533933 76 0 153
0.158564 -0.076356 0.106228 153 0 76
0.124225 -0.076031 0.508518 153 0 76
0.295517 0.043361 -0.305647 153 0 76
0.262630 -0.601672 -0.237197 76 153 0
0.076872 0.537182 -0.319797 76 153 0
-0.035403 -0.077030 -0.355606 76 0 153
0.033471 -0.089064 0.356668 76 0 153
-0.216410 -0.089064 -0.342147 76 0 153
-0.378106 -0.076356 0.086577 153 0 76
-0.180346 0.050721 0.456369 153 0 76
0.003420 -0.036094 -0.218778 76 0 153
0.087625 -0.025525 0.512018 76 0 153
-0.351544 -0.089064 -0.043146 76 0 153
-0.137194 -0.076356 -0.169137 153 0 76
0.057314 0.658411 -0.352101 76 153 0
-0.207044 -0.089064 0.084853 76 0 153
0.371706 -0.003951 -0.180121 153 0 76
-0.058260 -0.076356 -0.008356 153 0 76
0.107617 -0.076356 -0.141098 153 0 76
-0.113343 -0.089064 -0.099926 76 0 153
-0.350334 -0.710950 0.446405 76 0 153
0.201916 -0.089064 -0.030730 76 0 153
0.000709 -0.024076 0.508518 153 0 76
-0.095700 -0.076356 0.458494 153 0 76
0.184678 0.529781 -0.313817 76 153 0
0.174710 0.566284 -0.314509 76 153 0
-0.028031 0.050721 0.378005 153 0 76
-0.304996 -0.845050 -0.282043 0 127 127
-0.377349 -0.071076 -0.287977 76 0 153
0.272846 0.404630 -0.336877 76 153 0
0.201673 0.277619 -0.312443 76 153 0
0.318618 -0.116470 -0.303224 76 153 0
0.361599 -0.545765 0.405433 153 0 76
0.337822 0.048382 -0.170455 153 0 76
-0.371575 -0.089064 0.152205 76 0 153
-0.241551 -0.411107 -0.281593 0 127 127
0.180561 -0.089064 0.129023 76 0 153
-0.166415 -0.089064 0.418449 76 0 153
0.124276 -0.089064 -0.252850 76 0 153
-0.399424 -0.089064 0.319001 76 0 153
0.376702 0.465128 -0.338859 0 127 127
-0.139522 -0.089064 -0.083058 76 0 153
-0.353629 0.030559 0.022116 153 0 76
-0.193619 -0.089064 -0.039562 76 0 153
-0.059391 -0.076356 0.111864 153 0 76
0.236944 -0.089064 0.153794 76 0 153
0.410621 0.009635 0.379681 153 0 76
0.363277 -0.076356 -0.084425 153 0 76
-0.317839 -0.540231 -0.271602 0 127 127
-0.092810 -0.089064 0.137982 76 0 153
-0.037558 0.050721 0.344952 153 0 76
-0.394805 -0.089064 -0.054357 76 0 153
0.389000 0.032277 0.211593 153 0 76
-0.302199 -0.089064 0.143285 76 0 153
-0.012767 -0.089064 0.450477 76 0 153
-0.102181 -0.089064 0.059012 76 0 153
-0.308186 0.415720 -0.341918 0 127 127
-0.392210 -0.036445 -0.079817 76 0 153
-0.342153 -0.440582 0.462574 76 0 153
0.248107 0.050721 -0.050400 153 0 76
0.003420 -0.030758 0.474103 76 0 153
-0.076819 -0.089064 0.252845 76 0 153
-0.257060 -0.089064 0.155210 76 0 153
0.336489 0.038381 -0.184567 153 0 76
-0.140766 0.778345 -0.365132 0 127 127
-0.307247 -0.089064 -0.057660 76 0 153
-0.153428 -0.089064 0.132451 76 0 153
-0.234523 0.713961 -0.324599 0 127 127
-0.315283 -0.032948 0.528539 76 0 153
-0.338434 -0.089064 0.269553 76 0 153
-0.012034 -0.076356 -0.044690 153 0 76
0.141179 -0.089064 0.307309 76 0 153
0.382317 -0.076356 0.000741 153 0 76
0.113206 -0.089064 0.108948 76 0 153
-0.045733 0.423367 -0.320399 76 153 0
-0.229099 -0.089064 0.416130 76 0 153
-0.137404 0.266111 -0.316623 76 153 0
-0.284540 -0.323853 -0.221231 0 127 127
0.298447 -0.022882 -0.317659 0 255 0
0.306149 -0.784034 0.405377 153 0 76
0.062143 0.769585 -0.368997 0 127 127
-0.235850 0.050721 0.106924 153 0 76
0.232446 -0.089064 0.314716 76 0 153
-0.044593 0.048915 -0.293941 153 0 76
-0.025164 -0.051341 -0.355606 76 0 153
0.228406 -0.076356 0.482079 153 0 76
-0.139524 0.050721 -0.192930 153 0 76
0.185970 -0.089064 0.513344 76 0 153
-0.271965 -0.076356 0.085025 153 0 76
-0.000418 0.050721 0.279786 153 0 76
-0.156419 -0.089064 -0.078513 76 0 153
-0.369281 -0.015041 -0.118307 153 0 76
-0.365067 -0.037255 -0.177313 153 0 76
0.096916 0.221106 -0.318958 76 153 0
-0.284734 -0.157178 0.456841 76 0 153
-0.223997 0.158222 -0.325347 0 127 127
-0.286500 0.327207 -0.325800 0 127 127
-0.080260 -0.076356 0.075868 153 0 76
0.083231 -0.089064 0.203213 76 0 153
0.118212 -0.089064 0.502098 76 0 153
0.317008 -0.778980 -0.253004 76 153 0
-0.082835 0.099895 -0.334456 0 127 127
0.324652 -0.089064 -0.091017 76 0 153
-0.140106 0.050721 -0.115837 153 0 76
-0.204659 0.236412 -0.316334 76 153 0
0.051854 -0.089064 0.444296 76 0 153
0.175389 -0.089064 -0.311453 76 0 153
-0.327067 -0.089064 0.341572 76 0 153
0.096712 -0.089064 0.127837 76 0 153
-0.058990 -0.025538 -0.341214 76 0 153
0.100014 -0.089064 0.397037 76 0 153
0.251804 -0.122890 -0.229508 76 153 0
0.167293 0.495210 -0.346793 76 153 0
0.056318 -0.089064 0.160233 76 0 153
-0.109579 0.050721 -0.199649 153 0 76
0.149796 0.043412 -0.306741 153 0 76
-0.236179 -0.089064 -0.282221 0 127 127
0.343153 -0.385234 0.466497 153 0 76
-0.111683 0.050721 0.055591 153 0 76
0.003420 -0.051325 0.235554 76 0 153
-0.284918 -0.076356 0.121270 153 0 76
0.249868 -0.089064 0.414141 76 0 153
0.191276 -0.076356 0.451581 153 0 76
-0.101439 -0.089064 0.157286 76 0 153
-0.318771 0.035292 -0.303036 153 0 76
-0.109867 0.050721 0.119644 153 0 76
-0.310996 -0.009264 -0.348174 127 127 0
0.252773 0.050721 0.043118 153 0 76
-0.069798 -0.076356 -0.167180 153 0 76
0.349402 -0.738504 0.453273 153 0 76
0.063499 -0.076356 0.339206 153 0 76
0.006531 -0.089064 0.108929 76 0 153
0.300344 -0.076356 -0.105521 153 0 76
0.353733 -0.348860 0.390138 153 0 76
-0.013396 -0.089064 0.155951 76 0 153
0.210262 0.293212 -0.343377 76 153 0
0.370144 -0.089064 -0.246165 76 0 153
0.281284 -0.323792 -0.308902 76 153 0
0.326678 -0.076356 0.079936 153 0 76
-0.376332 0.031582 0.356844 153 0 76
0.296615 -0.076356 0.378489 153 0 76
-0.316519 -0.420028 0.467378 76 0 153
-0.347616 -0.650279 0.452174 76 0 153
-0.320979 0.573575 -0.314089 0 127 127
-0.095774 -0.083442 0.533933 76 0 153
0.267571 -0.089064 -0.350779 76 0 153
0.266079 0.225510 -0.354708 0 127 127
-0.177330 0.161244 -0.362595 0 127 127
0.072099 -0.076356 0.004238 153 0 76
0.036395 0.211521 -0.320620 76 153 0
0.112232 0.050721 0.031970 153 0 76
-0.240210 -0.089064 0.325942 76 0 153
0.135378 0.016151 -0.328330 153 0 76
-0.321779 -0.355365 -0.276892 0 127 127
0.275627 -0.076356 -0.022087 153 0 76
-0.349693 0.036123 0.058799 153 0 76
0.363182 -0.535562 0.445746 153 0 76
-0.143990 -0.076356 -0.121569 153 0 76
0.222163 -0.004265 -0.330191 153 0 76
-0.314285 -0.618615 -0.252422 0 127 127
-0.129919 -0.089064 0.403597 76 0 153
0.405115 -0.079634 -0.069124 76 0 153
0.237388 -0.110735 -0.274971 76 153 0
0.334376 -0.320331 0.382219 153 0 76
0.214873 -0.076356 0.076706 153 0 76
-0.065697 0.399082 -0.319974 76 153 0
0.367438 0.346815 -0.338724 0 127 127
-0.296656 0.573041 -0.316892 0 127 127
0.322762 -0.471551 0.465965 153 0 76
0.119059 -0.089064 0.377942 76 0 153
-0.282486 -0.117268 0.396106 76 0 153
-0.338127 0.050721 0.379043 153 0 76
-0.309171 -0.106600 -0.305560 0 127 127
0.003420 -0.069126 0.134415 76 0 153
0.178188 -0.089064 -0.018277 76 0 153
-0.336680 -0.076356 0.432482 153 0 76
0.345551 0.045703 0.063070 153 0 76
0.151796 0.050721 0.266795 153 0 76
-0.064572 0.748693 -0.356960 0 127 127
0.365092 -0.479908 0.444786 153 0 76
0.010959 0.421979 -0.352743 76 153 0
0.302029 -0.545943 0.453246 153 0 76
-0.235655 -0.076356 0.056995 153 0 76
-0.368735 0.030567 0.003866 153 0 76
-0.203560 -0.076356 -0.042913 153 0 76
0.120257 0.287552 -0.349758 76 153 0
0.056037 0.042918 -0.307586 153 0 76
-0.369592 0.014843 -0.013617 153 0 76
0.427481 -0.035720 0.265146 76 0 153
-0.242349 -0.089064 0.128206 76 0 153
0.339324 -0.250995 0.380926 153 0 76
-0.044958 0.050721 -0.015380 153 0 76
0.300946 -0.107823 -0.313341 76 153 0
-0.164900 0.050721 0.023964 153 0 76
-0.314358 -0.257820 -0.295412 0 127 127
0.247784 0.419440 -0.307956 76 153 0
-0.280794 -0.089064 -0.144693 76 0 153
-0.183918 -0.076356 -0.115909 153 0 76
-0.128691 -0.076356 -0.034506 153 0 76
0.061459 -0.076356 -0.144434 153 0 76
-0.302948 0.539980 -0.349224 0 127 127
-0.400131 -0.076356 0.410738 153 0 76
-0.344615 0.352881 -0.343154 0 127 127
-0.370390 0.457780 -0.306537 0 127 127
0.003420 -0.060056 -0.106360 76 0 153
0.096541 -0.076356 0.044058 153 0 76
0.247212 -0.089064 0.341764 76 0 153
-0.250901 -0.076356 0.021854 153 0 76
0.128726 -0.089064 0.128198 76 0 153
-0.323766 -0.140340 -0.243931 0 127 127
-0.028246 -0.089064 0.346962 76 0 153
-0.030998 -0.089064 0.299331 76 0 153
-0.282960 -0.716726 -0.231063 0 127 127
0.350955 0.048179 0.179587 153 0 76
-0.291636 0.577825 -0.350641 0 127 127
-0.063213 0.050721 0.440194 153 0 76
