ply
format ascii 1.0
element vertex 1266
property float x
property float y
property float z
property uchar red
property uchar green
property uchar blue
end_header
0.164008 0.504769 -0.347020 76 153 0
-0.136179 0.050720 0.345120 153 0 76
0.003420 -0.025917 0.323145 76 0 153
-0.080950 0.050720 -0.006006 153 0 76
0.076424 0.349523 -0.351580 76 153 0
0.370597 0.032005 0.187796 153 0 76
0.140301 -0.076357 -0.323696 153 0 76
0.201346 -0.089065 -0.157824 76 0 153
0.003420 -0.052306 0.185473 76 0 153
0.027305 0.314385 -0.352515 76 153 0
-0.050951 -0.076357 0.452773 153 0 76
-0.273611 0.590411 -0.337137 0 127 127
-0.043993 0.041250 -0.310017 153 0 76
0.277748 0.573309 -0.313272 76 153 0
-0.355404 -0.039158 0.514575 76 0 153
0.096115 0.050720 -0.097374 153 0 76
-0.298577 0.599126 -0.348787 0 127 127
-0.395496 0.018443 0.286101 153 0 76
-0.382881 -0.069045 0.072100 153 0 76
-0.231014 -0.076357 0.056983 153 0 76
-0.306331 -0.089065 -0.008288 76 0 153
0.303748 -0.669261 0.403135 153 0 76
-0.259444 0.050720 -0.089553 153 0 76
-0.166247 0.050720 0.134275 153 0 76
-0.110944 0.394244 -0.349860 76 153 0
0.024220 0.050720 0.345289 153 0 76
0.292361 0.042203 -0.350431 0 255 0
0.322362 -0.535944 0.464246 153 0 76
-0.239191 -0.447036 -0.261762 0 127 127
-0.312516 0.646727 -0.338033 0 127 127
-0.286632 -0.076357 -0.145963 153 0 76
-0.138775 -0.018293 -0.330190 153 0 76
-0.137694 -0.089065 -0.126786 76 0 153
0.186397 -0.076357 0.476551 153 0 76
-0.187280 0.050720 0.091168 153 0 76
0.349723 0.007227 0.495762 153 0 76
0.346790 0.362010 -0.311118 0 127 127
0.169445 -0.076357 0.385589 153 0 76
0.138554 0.649342 -0.317017 76 153 0
-0.058511 0.133176 -0.350780 76 153 0
-0.006900 -0.089065 -0.320932 76 0 153
-0.130529 -0.089065 0.082026 76 0 153
0.249622 -0.554227 -0.272311 76 153 0
0.089933 0.050720 -0.189926 153 0 76
0.003797 -0.076357 0.047073 76 0 153
0.412185 -0.089065 0.100438 76 0 153
-0.403961 -0.089065 0.104831 76 0 153
-0.012634 0.510035 -0.320855 76 153 0
0.138308 0.157629 -0.360862 0 127 127
0.149903 0.050720 0.221443 153 0 76
-0.338716 0.050720 0.309158 153 0 76
0.021142 -0.076357 0.461374 153 0 76
-0.223135 0.525905 -0.341458 76 153 0
0.105704 0.152987 -0.330674 76 153 0
0.304499 -0.627694 -0.233007 76 153 0
0.061494 0.050720 -0.264447 153 0 76
0.278545 -0.317093 -0.221495 76 153 0
0.282088 0.050720 0.233434 153 0 76
0.434671 -0.060620 0.344669 76 0 153
-0.109553 -0.043417 0.508519 153 0 76
-0.427173 -0.059108 0.335467 76 0 153
-0.049707 0.347150 -0.352110 76 153 0
-0.100810 -0.089065 0.152347 76 0 153
0.017331 0.512495 -0.352654 76 153 0
0.084552 -0.089065 0.533032 76 0 153
0.322662 -0.227429 -0.235624 76 153 0
-0.365719 -0.295339 0.413360 76 0 153
0.048150 0.050720 0.110462 153 0 76
-0.213918 -0.076357 -0.202744 153 0 76
0.047078 -0.089065 -0.234136 76 0 153
-0.018801 0.092367 -0.336763 0 127 127
0.283064 -0.089065 -0.155660 76 0 153
0.102876 0.784313 -0.334704 0 127 127
0.033906 -0.089065 0.287048 76 0 153
0.078055 0.077363 -0.335737 0 127 127
-0.016861 0.759921 -0.368559 0 127 127
0.306263 -0.042235 -0.327150 153 0 76
0.264152 -0.076357 0.307879 153 0 76
0.100176 -0.089065 -0.295681 76 0 153
-0.413592 -0.089065 0.395534 76 0 153
0.268605 -0.625167 -0.233396 76 153 0
-0.210357 0.050720 0.212436 153 0 76
-0.317933 0.017851 -0.314571 153 0 76
0.027682 -0.089065 0.418293 76 0 153
0.063953 0.724311 -0.323651 76 153 0
-0.119249 0.141039 -0.365508 0 127 127
0.326506 -0.025920 -0.332702 76 0 153
0.354273 -0.089065 -0.064136 76 0 153
0.169427 0.756849 -0.330869 0 127 127
-0.368103 0.033823 0.032719 153 0 76
0.003420 -0.028856 0.251817 76 0 153
0.367296 -0.076357 0.004146 153 0 76
0.276948 0.252571 -0.320586 0 127 127
0.076780 -0.089065 0.285673 76 0 153
0.254265 0.043849 -0.336687 0 255 0
0.312017 -0.555295 -0.236260 76 153 0
-0.263166 -0.089065 0.042658 76 0 153
-0.275063 -0.724231 -0.231592 0 127 127
-0.091949 0.050720 0.341602 153 0 76
0.358461 -0.194913 0.388534 153 0 76
-0.330959 -0.025526 0.508549 76 0 153
-0.047427 0.092008 -0.368136 0 127 127
-0.082633 0.159904 -0.351037 76 153 0
0.307891 -0.735457 0.451582 153 0 76
-0.300835 -0.076357 0.235679 153 0 76
-0.227728 0.050720 0.028060 153 0 76
-0.353439 -0.612662 0.406627 76 0 153
-0.292285 -0.735363 0.414207 76 0 153
0.394308 -0.004682 0.136317 153 0 76
0.021128 0.050720 -0.244324 153 0 76
-0.355596 -0.006213 -0.273486 153 0 76
0.082883 -0.089065 0.443930 76 0 153
-0.312795 0.050720 0.203777 153 0 76
0.372367 -0.355275 0.430919 153 0 76
-0.281623 -0.391687 0.437992 76 0 153
0.125518 0.266685 -0.317768 76 153 0
0.296048 -0.523259 -0.226940 76 153 0
-0.389340 -0.029888 -0.114846 76 0 153
0.028342 -0.076357 0.205330 153 0 76
0.241432 0.455542 -0.340343 76 153 0
-0.321666 -0.414759 -0.267202 0 127 127
-0.387568 -0.001470 0.137708 153 0 76
0.215068 0.050720 0.255116 153 0 76
0.043797 0.050720 -0.137909 153 0 76
-0.047305 -0.089065 0.398274 76 0 153
0.334543 0.114679 -0.335485 0 255 0
0.263383 0.047891 0.475652 153 0 76
0.287731 -0.359834 -0.221669 76 153 0
-0.265537 0.050720 0.244659 153 0 76
0.372136 -0.047828 -0.174089 153 0 76
0.060659 0.028685 0.485102 153 0 76
0.088348 0.271773 -0.319314 76 153 0
0.303506 0.287798 -0.349027 0 127 127
-0.184381 0.004409 -0.330190 153 0 76
0.318340 -0.809515 -0.262198 76 153 0
-0.338699 -0.416040 0.464672 76 0 153
0.323081 -0.094160 -0.230699 76 153 0
0.374499 -0.075905 -0.141004 153 0 76
0.220252 -0.076357 0.171138 153 0 76
0.364475 -0.129072 0.460775 153 0 76
0.147412 0.792411 -0.352027 0 127 127
-0.217099 -0.075057 -0.355605 76 0 153
-0.088220 0.744886 -0.347622 0 127 127
0.364789 0.487094 -0.308353 0 127 127
-0.063181 -0.076357 0.288573 153 0 76
-0.317159 0.083867 -0.314668 127 127 0
-0.283768 -0.071316 -0.329899 153 0 76
0.243322 -0.076357 0.324854 153 0 76
0.282623 -0.728467 -0.297594 76 153 0
0.016187 0.050720 -0.127668 153 0 76
-0.297042 -0.341552 -0.305189 0 127 127
-0.131732 0.745341 -0.333010 0 127 127
0.272202 -0.089065 -0.260755 76 153 0
0.003420 -0.086301 -0.010782 76 0 153
0.027758 -0.052954 -0.330190 153 0 76
-0.197197 0.668436 -0.343981 76 153 0
0.026148 0.460647 -0.320762 76 153 0
-0.225762 0.050720 -0.238628 153 0 76
0.274819 -0.054185 0.508519 153 0 76
-0.364486 -0.357520 0.414619 76 0 153
0.264723 0.606610 -0.318801 76 153 0
-0.240652 -0.487358 -0.259259 0 127 127
-0.050322 -0.089065 0.515862 76 0 153
-0.196525 -0.076357 0.468272 76 0 153
-0.135662 -0.076357 0.136002 153 0 76
0.300474 -0.744698 0.411641 153 0 76
0.239790 0.542101 -0.308733 76 153 0
-0.395643 0.028477 0.414159 153 0 76
0.236217 0.050720 0.441986 153 0 76
0.111972 0.393567 -0.318333 76 153 0
-0.340208 0.048125 -0.053169 153 0 76
-0.358683 -0.460209 0.407602 76 0 153
0.005360 -0.089065 -0.159490 76 0 153
-0.292369 -0.715510 -0.296030 0 127 127
-0.170781 0.431408 -0.314306 76 153 0
-0.022873 0.047593 -0.298251 153 0 76
0.257131 -0.076357 0.153766 153 0 76
-0.214757 0.050720 0.442807 153 0 76
0.171977 -0.089065 -0.043600 76 0 153
-0.266545 -0.089065 0.252569 76 0 153
0.004263 0.568899 -0.321065 76 153 0
0.359270 0.024511 0.467504 153 0 76
0.081937 0.274510 -0.351351 76 153 0
0.279138 0.072793 -0.352092 0 255 0
0.105463 0.742434 -0.334545 0 127 127
0.272495 -0.213822 -0.220104 76 153 0
-0.396895 -0.089065 0.248517 76 0 153
0.257863 -0.582765 -0.241598 76 153 0
0.003420 -0.088212 -0.199105 76 0 153
0.078307 0.050720 0.380827 153 0 76
0.376620 -0.019354 0.476659 153 0 76
-0.136432 -0.089065 0.382701 76 0 153
0.024453 0.095805 -0.336780 0 127 127
-0.091273 0.289884 -0.350678 76 153 0
0.384200 0.025880 0.277208 153 0 76
0.348982 0.593759 -0.318654 0 127 127
-0.230129 0.577870 -0.309008 76 153 0
-0.083040 -0.089065 0.337544 76 0 153
0.329149 -0.377212 -0.260383 76 153 0
-0.089391 -0.089065 0.280790 76 0 153
0.352129 -0.491020 0.458977 153 0 76
-0.365044 0.012835 -0.164860 153 0 76
-0.320292 -0.674049 0.391873 76 0 153
-0.311419 -0.486896 0.387975 76 0 153
-0.097681 -0.018947 0.508519 153 0 76
-0.324012 -0.175035 -0.283779 0 127 127
-0.216842 -0.089065 0.122457 76 0 153
0.255062 0.691606 -0.355010 0 127 127
0.179632 -0.087818 -0.355605 76 0 153
-0.081736 -0.028412 -0.348091 76 0 153
-0.295500 -0.076357 0.134460 153 0 76
-0.059563 0.303978 -0.351974 76 153 0
-0.288012 0.497946 -0.307583 76 153 0
-0.263764 -0.395012 -0.304033 0 127 127
-0.154746 0.629727 -0.315419 76 153 0
-0.352231 0.047636 0.284255 153 0 76
0.071809 0.045164 -0.303740 153 0 76
-0.078792 -0.089065 0.255549 76 0 153
-0.276242 -0.143154 0.442804 76 0 153
-0.266529 -0.089065 0.387268 76 0 153
0.158092 -0.082404 -0.355605 76 0 153
0.158567 -0.076357 -0.109719 153 0 76
-0.126738 -0.089065 0.284934 76 0 153
-0.177097 -0.068134 0.508519 153 0 76
0.437575 -0.086968 0.400728 76 0 153
0.406841 0.009092 0.317261 153 0 76
0.233152 0.258157 -0.314972 76 153 0
-0.180692 -0.089065 0.261726 153 0 76
-0.387388 -0.040881 0.135196 153 0 76
0.424542 -0.089065 0.323253 76 0 153
-0.258231 0.228527 -0.322075 0 127 127
-0.013046 0.050720 -0.190716 153 0 76
0.233220 -0.063889 0.508519 153 0 76
-0.354198 -0.089065 -0.272999 76 0 153
-0.370682 0.475373 -0.330541 0 127 127
-0.042982 0.050720 0.115938 153 0 76
0.410832 0.002511 0.367655 153 0 76
0.168223 0.296681 -0.346727 76 153 0
-0.010488 -0.089065 -0.092705 153 0 76
0.215385 0.350341 -0.342877 76 153 0
-0.258924 -0.076357 -0.202453 153 0 76
0.010357 0.184096 -0.320981 76 153 0
-0.311348 -0.413047 -0.237412 0 127 127
0.327818 -0.089065 0.456423 76 0 153
0.322478 -0.048288 0.505785 153 0 76
-0.046036 -0.007624 0.508519 153 0 76
-0.241004 -0.073023 0.533934 76 0 153
-0.311119 -0.156625 0.378398 76 0 153
-0.104055 -0.089065 0.462720 76 0 153
-0.291952 -0.126995 0.386881 76 0 153
-0.063143 -0.089065 0.488211 76 0 153
0.109078 -0.089065 -0.061097 76 0 153
0.126707 -0.089065 -0.285039 76 0 153
0.365886 -0.089065 0.133940 76 0 153
0.133121 0.050720 -0.167470 153 0 76
0.252500 -0.076357 0.374681 153 0 76
-0.354601 -0.703901 0.414343 76 0 153
0.018942 -0.052423 0.508519 153 0 76
0.242905 -0.076357 0.085765 153 0 76
-0.205314 0.050720 0.141919 153 0 76
0.004527 0.366167 -0.321062 76 153 0
0.019101 0.071777 -0.368623 0 127 127
0.345351 -0.076357 0.167676 153 0 76
-0.007325 -0.076357 0.183434 76 0 153
-0.326810 0.042193 -0.161416 153 0 76
-0.112320 -0.076357 0.060082 153 0 76
0.027856 -0.076357 0.325413 153 0 76
-0.223117 -0.076357 -0.246606 76 0 153
0.331329 0.031391 0.475154 153 0 76
0.261639 -0.076357 -0.051605 153 0 76
-0.307160 -0.618541 0.459254 76 0 153
-0.158270 0.050720 -0.095946 153 0 76
0.285360 -0.190056 0.444943 153 0 76
-0.249764 0.223556 -0.354860 0 127 127
0.380574 -0.089065 -0.033105 76 0 153
0.156161 0.576549 -0.315795 76 153 0
-0.373415 0.431068 -0.323281 0 127 127
0.176991 -0.076357 0.431760 153 0 76
0.196199 -0.076357 0.301560 153 0 76
0.314533 -0.076357 -0.319895 153 0 76
-0.361021 -0.089065 0.098425 153 0 76
-0.013151 0.050720 -0.080920 153 0 76
0.216283 0.231839 -0.342790 76 153 0
0.003053 0.630211 -0.321072 76 153 0
0.116285 0.805412 -0.341364 0 127 127
-0.172861 -0.089065 0.443069 76 0 153
0.318664 -0.752554 -0.255268 76 153 0
0.326260 -0.536376 0.388081 153 0 76
-0.297772 0.094435 -0.348891 127 127 0
0.098806 0.791636 -0.366643 0 127 127
0.272716 0.329352 -0.309233 76 153 0
0.348448 -0.089065 -0.237962 76 0 153
0.168267 -0.089065 0.076941 76 0 153
0.317475 0.026491 -0.299380 153 0 76
-0.283968 -0.089065 -0.028489 76 0 153
0.003420 -0.034015 0.123690 76 0 153
0.289865 -0.106049 -0.315287 76 153 0
0.420899 -0.082990 0.460159 76 0 153
0.382312 0.020667 0.017952 153 0 76
-0.234392 -0.006007 0.508519 153 0 76
0.092856 0.050720 0.024025 153 0 76
0.055026 -0.089065 0.353886 76 0 153
-0.022648 0.068032 -0.368479 0 127 127
0.286889 0.351289 -0.335115 76 153 0
0.304472 0.393714 -0.332911 0 127 127
-0.079419 -0.076357 0.178834 153 0 76
0.356426 0.406445 -0.309638 0 127 127
-0.090553 0.765364 -0.366702 0 127 127
0.173670 0.050720 0.434115 153 0 76
0.361961 0.020231 -0.127327 153 0 76
-0.319898 0.050720 -0.042779 153 0 76
-0.243946 -0.425724 -0.286091 0 127 127
0.196053 0.690022 -0.344758 0 127 127
0.341576 -0.709418 0.394921 153 0 76
0.280066 0.050720 0.365531 153 0 76
0.333665 -0.814526 0.457534 153 0 76
-0.267548 -0.089065 -0.328541 76 0 153
-0.359071 -0.022142 -0.258872 153 0 76
0.361155 -0.307794 0.457766 153 0 76
0.178174 -0.076357 0.327978 153 0 76
0.003420 -0.069413 0.489016 153 0 76
0.177541 -0.089065 -0.076417 76 0 153
0.212313 -0.089065 0.527957 76 0 153
0.389463 -0.089065 0.284624 76 0 153
0.216093 -0.076357 0.489595 153 0 76
-0.233804 0.475651 -0.340419 76 153 0
0.164690 0.760396 -0.362966 0 127 127
0.225529 0.043622 -0.289219 153 0 76
0.391381 -0.034855 0.459877 153 0 76
-0.249930 -0.089065 -0.099299 76 0 153
-0.264602 0.050720 -0.148804 153 0 76
-0.152447 0.050720 -0.275096 153 0 76
-0.153853 0.184475 -0.347250 0 127 127
0.282816 -0.217026 0.418193 153 0 76
0.366561 -0.017917 -0.252142 153 0 76
-0.318270 -0.279310 -0.289376 0 127 127
-0.152054 0.150703 -0.331600 0 127 127
-0.142523 0.035441 0.477162 153 0 76
-0.259197 0.174982 -0.353739 0 127 127
-0.227930 -0.042737 -0.330190 153 0 76
0.337275 -0.076357 0.270358 153 0 76
-0.157699 -0.089065 0.531270 76 0 153
-0.305844 0.032057 -0.294690 153 0 76
0.094630 0.580601 -0.350823 76 153 0
0.316121 -0.089065 0.486306 76 0 153
0.076503 0.050720 -0.025224 153 0 76
-0.311200 -0.119551 -0.227156 0 127 127
-0.388745 -0.076357 0.288405 153 0 76
-0.083343 0.050720 -0.053613 153 0 76
-0.359126 -0.385396 0.448311 76 0 153
-0.112436 -0.089065 0.406229 76 0 153
0.090083 -0.029368 -0.330190 153 0 76
0.019823 -0.076357 -0.105624 153 0 76
-0.019349 0.798041 -0.336756 0 127 127
0.007885 0.821413 -0.368778 0 127 127
0.186753 0.028012 -0.322646 153 0 76
0.136820 0.704599 -0.348907 76 153 0
0.352033 -0.857880 0.423205 153 0 76
0.022056 0.816012 -0.336813 0 127 127
0.059893 0.050720 0.178096 153 0 76
0.354932 0.050720 0.357641 153 0 76
0.094269 -0.076357 -0.234387 153 0 76
0.292383 0.050720 -0.059539 153 0 76
-0.268599 -0.089065 -0.297023 76 0 153
-0.338896 -0.076357 0.329486 153 0 76
-0.107440 -0.030293 -0.350368 76 0 153
-0.088271 0.601645 -0.350803 76 153 0
0.003420 -0.051566 0.058072 76 0 153
0.302025 0.164610 -0.349216 0 255 0
-0.362939 -0.076357 0.232858 153 0 76
-0.363774 -0.082062 0.513372 76 0 153
-0.121755 -0.076357 0.160286 153 0 76
0.264584 -0.425562 -0.229813 76 153 0
-0.307668 0.562335 -0.347647 0 127 127
0.034929 0.680029 -0.320643 76 153 0
-0.255552 0.050720 -0.010194 153 0 76
0.164355 0.289674 -0.315227 76 153 0
0.345328 -0.471557 0.389418 153 0 76
-0.318893 0.247718 -0.337178 0 127 127
0.074629 -0.076357 0.460086 153 0 76
-0.316292 0.143268 -0.346564 127 127 0
-0.388539 -0.061738 0.151310 153 0 76
0.282643 -0.089065 -0.288287 76 0 153
-0.391802 0.030295 0.323671 153 0 76
-0.330759 -0.494489 0.465196 76 0 153
-0.171169 -0.089065 -0.150241 76 0 153
-0.260520 0.400849 -0.337564 76 153 0
0.302056 0.038870 0.472919 153 0 76
-0.314067 -0.386592 0.384536 76 0 153
0.243326 0.358590 -0.308389 76 153 0
-0.416680 -0.049502 0.188555 76 0 153
-0.216207 -0.070420 0.533934 76 0 153
0.333929 -0.150837 -0.277898 76 153 0
-0.194383 0.154606 -0.328480 0 127 127
-0.029614 0.755522 -0.352389 0 127 127
-0.288097 -0.581404 -0.228280 0 127 127
-0.328735 -0.502681 0.387493 76 0 153
-0.115032 -0.089065 0.515899 76 0 153
-0.293732 -0.664277 0.446106 76 0 153
-0.195228 0.685799 -0.360167 0 127 127
0.084419 0.046938 0.463650 153 0 76
0.152137 0.030666 -0.320858 153 0 76
0.241372 -0.181584 -0.281660 76 153 0
-0.277537 -0.035139 -0.319647 127 127 0
0.076988 0.004473 -0.330190 153 0 76
0.219913 -0.089065 0.003985 76 0 153
0.216918 0.050720 0.371581 153 0 76
-0.234521 0.278542 -0.340350 76 153 0
-0.263198 -0.089065 -0.034496 76 0 153
0.329763 -0.076357 -0.155400 76 0 153
0.375398 -0.089065 -0.207988 76 0 153
0.066578 -0.076357 0.493661 153 0 76
0.097527 -0.089065 -0.036886 76 0 153
0.361232 -0.691327 0.440232 153 0 76
0.408684 -0.073625 -0.019146 76 0 153
-0.156258 0.050720 0.033281 153 0 76
0.069196 -0.045811 -0.330190 153 0 76
0.419235 -0.061495 0.128570 76 0 153
0.126285 -0.076357 0.194769 153 0 76
-0.342192 -0.651759 0.456290 76 0 153
0.262501 -0.202605 -0.306549 76 153 0
0.003420 -0.029136 -0.207374 76 0 153
-0.279685 -0.052923 0.533934 76 0 153
0.210549 -0.076357 0.206460 153 0 76
-0.156291 0.656229 -0.347081 76 153 0
-0.253785 0.374748 -0.306639 76 153 0
-0.037523 0.130827 -0.345490 0 127 127
-0.318510 -0.089065 -0.326186 76 0 153
0.206115 -0.089065 0.346624 76 0 153
0.206505 0.334893 -0.311972 76 153 0
0.123042 0.050720 0.058214 153 0 76
-0.295009 -0.076357 0.093811 76 0 153
0.186632 -0.089065 0.362373 76 0 153
0.308014 -0.496457 -0.298444 76 153 0
0.301042 -0.456211 -0.302964 76 153 0
0.273236 0.035518 -0.298742 153 0 76
0.267218 -0.076357 0.348446 153 0 76
0.191764 -0.089065 -0.243390 76 0 153
0.003420 -0.066032 0.118992 76 0 153
-0.248668 -0.643766 -0.281532 0 127 127
-0.269150 0.050720 0.393081 153 0 76
-0.123773 0.713305 -0.324926 76 153 0
0.003420 -0.088218 -0.055691 76 0 153
-0.354829 -0.714079 0.437686 76 0 153
0.229273 0.308275 -0.341526 76 153 0
-0.219906 -0.089065 0.402751 153 0 76
-0.311857 -0.534390 0.389251 76 0 153
0.150634 0.235128 -0.316179 76 153 0
-0.329442 -0.741289 0.459062 76 0 153
0.375110 -0.258306 0.423228 153 0 76
-0.359552 -0.596741 0.429431 76 0 153
-0.289011 -0.296270 0.456255 76 0 153
0.134899 -0.089065 0.319734 76 0 153
-0.007622 -0.025526 -0.338286 76 0 153
0.378709 -0.076357 0.118227 153 0 76
-0.415916 -0.025977 0.353967 76 0 153
-0.414975 -0.029959 0.242858 76 0 153
0.041686 -0.076357 0.490798 153 0 76
0.259107 -0.727837 -0.282800 76 153 0
0.034020 0.159277 -0.323228 76 153 0
-0.089169 0.215906 -0.318994 76 153 0
-0.024973 0.265595 -0.352453 76 153 0
0.305648 -0.486425 0.394524 153 0 76
0.013016 0.374632 -0.352713 76 153 0
-0.056786 0.180192 -0.352012 76 153 0
-0.353080 -0.076357 0.304585 153 0 76
-0.296479 -0.066523 0.508289 153 0 76
0.363221 -0.373260 0.452386 153 0 76
0.317016 0.050720 0.048342 153 0 76
-0.315000 -0.572739 -0.251137 0 127 127
-0.099733 0.434255 -0.350326 76 153 0
0.375570 -0.076357 0.433856 153 0 76
0.305655 0.421314 -0.332763 76 153 0
-0.286618 -0.089065 -0.265326 0 127 127
-0.129805 0.050720 0.047049 153 0 76
0.352239 -0.089065 0.283860 76 0 153
0.217282 0.213286 -0.329982 0 127 127
0.127269 -0.025725 0.519653 153 0 76
-0.038211 -0.076357 0.000756 76 0 153
-0.214087 0.447430 -0.310569 76 153 0
0.257131 -0.690041 -0.281993 76 153 0
0.273854 0.108041 -0.352756 0 255 0
-0.313694 0.108553 -0.346890 127 127 0
-0.355687 -0.058472 0.488096 153 0 76
-0.281826 -0.655191 -0.300043 0 127 127
0.140805 -0.076357 0.019917 153 0 76
0.381429 -0.035442 -0.043995 76 0 153
-0.075882 -0.076357 -0.262884 153 0 76
-0.365508 -0.089065 -0.208453 76 0 153
0.210632 0.611036 -0.343340 76 153 0
-0.097327 0.673473 -0.350426 76 153 0
-0.213630 0.668677 -0.330283 0 127 127
-0.290037 0.362724 -0.333863 76 153 0
-0.064373 0.759372 -0.336021 0 127 127
-0.158712 -0.076357 -0.088907 153 0 76
-0.401936 -0.089065 0.272674 76 0 153
0.277648 -0.017968 -0.320493 153 0 76
-0.243188 -0.405299 -0.244028 0 127 127
-0.349911 0.385331 -0.309588 0 127 127
0.025354 -0.076357 -0.127559 153 0 76
-0.239058 -0.126755 -0.236991 0 127 127
-0.208013 -0.076357 -0.270144 153 0 76
0.016218 -0.089065 -0.085152 76 0 153
0.347575 -0.405676 0.464110 153 0 76
-0.196364 -0.076357 -0.171641 153 0 76
0.268665 0.050720 -0.213171 153 0 76
0.286638 0.579833 -0.333435 0 127 127
0.370731 -0.039407 -0.193764 153 0 76
0.179841 -0.089065 0.008953 76 0 153
0.353639 0.303762 -0.321452 0 127 127
-0.077143 0.050720 -0.207612 153 0 76
-0.404262 -0.068454 0.475911 76 0 153
-0.006527 -0.089065 0.513727 76 0 153
0.221865 0.050720 -0.211166 153 0 76
-0.180008 -0.089065 0.136182 76 0 153
0.083262 0.567124 -0.319530 76 153 0
0.241846 0.050720 0.144668 153 0 76
-0.327476 -0.696864 0.392773 76 0 153
-0.099914 0.337170 -0.318550 76 153 0
-0.134703 -0.076357 0.010028 153 0 76
0.097855 0.356713 -0.350689 76 153 0
-0.157564 -0.076357 -0.257043 153 0 76
0.294428 0.050720 -0.251595 153 0 76
0.022966 0.742423 -0.352575 76 153 0
0.356673 -0.628651 0.450436 153 0 76
0.404191 -0.076357 0.381836 153 0 76
0.262163 0.448991 -0.338215 76 153 0
-0.348062 -0.694335 0.450048 76 0 153
-0.281337 0.575240 -0.325255 0 127 127
0.122928 -0.089065 -0.312421 76 0 153
-0.279289 -0.111822 -0.215183 0 127 127
0.061747 -0.076357 -0.273641 153 0 76
-0.013180 -0.076357 0.031786 153 0 76
0.215208 0.050720 -0.253803 153 0 76
-0.009593 -0.089065 0.203921 76 0 153
-0.155513 0.117108 -0.363129 0 127 127
0.389755 -0.089065 0.261205 76 0 153
-0.028159 0.595627 -0.320641 76 153 0
-0.092487 -0.089065 0.119991 76 0 153
0.365682 0.050008 0.316497 153 0 76
-0.142225 -0.061078 0.533934 76 0 153
-0.057727 0.537932 -0.320233 76 153 0
0.223322 0.293374 -0.310336 76 153 0
0.042435 -0.076357 0.173655 153 0 76
0.174147 0.050720 0.014354 153 0 76
0.057164 0.078191 -0.368096 0 127 127
-0.213211 -0.089065 0.054303 76 0 153
-0.320161 -0.842395 0.396667 76 0 153
0.364612 -0.173141 0.393136 153 0 76
0.173860 0.708261 -0.344821 0 127 127
0.289222 -0.262211 0.449100 153 0 76
0.259874 -0.076357 0.490289 153 0 76
-0.077116 0.531143 -0.351267 76 153 0
0.240561 0.266603 -0.340427 76 153 0
-0.355867 0.048740 0.194601 153 0 76
0.363578 -0.540799 0.408394 153 0 76
-0.315998 0.056956 -0.346601 127 127 0
0.043457 0.576819 -0.352291 76 153 0
-0.298306 -0.500147 -0.299960 0 127 127
-0.279760 0.050720 0.220823 153 0 76
0.325822 -0.857880 0.402961 153 0 76
0.168410 -0.089065 0.492119 76 0 153
-0.296646 0.409718 -0.309676 76 153 0
-0.387532 -0.068948 -0.219509 76 0 153
0.359140 0.050359 0.252586 153 0 76
0.198088 0.425513 -0.344560 76 153 0
-0.419687 -0.062024 0.448296 76 0 153
0.304055 -0.763394 -0.292408 76 153 0
-0.108498 0.050216 -0.287632 153 0 76
0.252060 0.537235 -0.339309 76 153 0
-0.249746 -0.089065 0.464990 76 0 153
0.264858 -0.766591 -0.288110 76 153 0
-0.278397 -0.292323 0.416032 76 0 153
0.135359 0.050720 0.149987 153 0 76
0.185319 0.050720 -0.205781 153 0 76
0.013188 0.700197 -0.320943 76 153 0
0.121232 0.554697 -0.349716 76 153 0
-0.094445 0.050720 -0.094062 153 0 76
0.175725 -0.027999 0.508519 76 0 153
-0.268428 0.050720 0.332830 153 0 76
0.172882 0.202445 -0.320189 76 153 0
-0.297619 -0.627551 -0.232987 0 127 127
-0.284681 -0.464096 0.412460 76 0 153
-0.170846 0.050720 0.368392 153 0 76
-0.372969 0.007105 -0.066668 153 0 76
-0.198886 -0.089065 0.385079 76 0 153
-0.222414 0.735266 -0.357522 0 127 127
0.248425 -0.089065 -0.335770 76 0 153
0.236257 0.481786 -0.309077 76 153 0
-0.093065 0.225131 -0.350603 76 153 0
-0.290923 -0.076357 0.325400 153 0 76
0.307291 -0.802920 -0.240434 76 153 0
-0.276490 -0.250863 0.430542 76 0 153
-0.232431 -0.140519 -0.279631 0 127 127
-0.342484 0.337266 -0.342498 0 127 127
0.212373 -0.089065 0.223372 76 0 153
0.144190 -0.076357 0.049443 153 0 76
-0.204659 0.196772 -0.327480 0 127 127
-0.337387 0.320626 -0.311512 0 127 127
0.066734 -0.089065 0.303670 76 0 153
0.358219 -0.076357 -0.215782 153 0 76
-0.245867 -0.313792 -0.236403 0 127 127
-0.031222 -0.089065 0.357421 76 0 153
-0.289278 -0.467636 -0.225528 0 127 127
-0.017113 0.530630 -0.352562 76 153 0
-0.259667 0.050720 0.429823 153 0 76
-0.293864 -0.303032 0.391734 76 0 153
-0.094663 0.645514 -0.318772 76 153 0
0.289931 -0.479330 -0.304809 76 153 0
-0.314418 -0.182281 -0.231941 0 127 127
-0.377376 0.032624 0.391558 153 0 76
0.040409 -0.076357 -0.066286 153 0 76
-0.037362 -0.089065 0.207831 76 0 153
-0.101210 0.050720 -0.171030 153 0 76
-0.388577 0.025120 0.231957 153 0 76
-0.393197 0.009668 0.445091 153 0 76
-0.328505 0.049765 -0.012777 153 0 76
-0.149466 -0.076357 0.046983 76 0 153
0.065356 -0.025093 0.508519 76 0 153
0.289725 0.619048 -0.318985 0 127 127
-0.063534 0.491591 -0.320065 76 153 0
-0.328971 -0.089065 0.365414 76 0 153
0.308177 -0.089065 -0.259689 76 153 0
0.153367 -0.089065 -0.149959 76 0 153
0.158797 0.050720 -0.262614 153 0 76
-0.161225 -0.089065 -0.327824 76 0 153
0.045490 -0.076357 0.250097 153 0 76
-0.245759 -0.538674 -0.282299 0 127 127
-0.303266 -0.426596 -0.299213 0 127 127
-0.374982 -0.039774 -0.287160 76 0 153
-0.197290 -0.089065 0.115533 76 0 153
-0.103006 -0.076357 0.306074 153 0 76
-0.133564 -0.043511 0.508519 153 0 76
-0.008935 0.050720 0.054744 153 0 76
-0.003890 0.050720 -0.263921 153 0 76
-0.395556 -0.048283 -0.107171 76 0 153
-0.100734 -0.089065 0.440566 76 0 153
0.408003 -0.089065 0.219756 76 0 153
-0.286268 -0.106325 0.461093 76 0 153
0.181069 0.605227 -0.314067 76 153 0
0.272129 0.179397 -0.337793 0 127 127
-0.190730 0.474196 -0.312841 76 153 0
-0.153462 0.036043 -0.316141 153 0 76
0.087198 0.025646 0.488674 153 0 76
-0.355537 -0.641324 0.412341 76 0 153
-0.279908 0.023216 0.491530 153 0 76
-0.014584 0.823128 -0.358462 0 127 127
-0.109338 0.050720 0.287550 153 0 76
-0.280267 -0.320484 0.439820 76 0 153
0.343370 -0.581888 0.461062 153 0 76
-0.277471 -0.517400 -0.303805 0 127 127
0.081072 0.215679 -0.351387 76 153 0
-0.389105 0.014601 0.255574 153 0 76
0.291283 -0.365237 0.405708 153 0 76
-0.289231 -0.280019 -0.309591 0 127 127
0.332983 -0.157652 -0.250804 76 153 0
0.426221 -0.029828 0.433112 76 0 153
0.257367 -0.545560 -0.240595 76 153 0
-0.357460 -0.089065 -0.092711 76 0 153
-0.124927 0.289968 -0.349257 76 153 0
0.118052 0.719325 -0.349849 76 153 0
0.143786 0.050720 0.095433 153 0 76
0.105665 0.050720 0.425160 153 0 76
0.291187 -0.251344 0.399953 153 0 76
0.330438 0.050669 -0.066558 153 0 76
-0.081855 -0.076357 0.408595 153 0 76
-0.330745 -0.455578 0.386436 76 0 153
0.397223 -0.006409 0.177127 153 0 76
0.165578 0.543726 -0.315142 76 153 0
0.134029 0.520663 -0.317331 76 153 0
0.294932 -0.048567 0.533844 76 0 153
-0.260594 -0.089065 0.155462 76 0 153
0.182868 0.231088 -0.345711 76 153 0
0.058490 -0.089065 0.383564 76 0 153
0.370077 -0.249558 0.404250 153 0 76
0.061454 -0.089065 0.142737 76 0 153
0.141916 -0.076357 -0.086213 153 0 76
-0.127040 -0.089065 0.199048 76 0 153
0.029492 0.050720 -0.009474 153 0 76
-0.412315 -0.027131 0.263377 76 0 153
-0.370558 -0.089065 0.157988 76 0 153
0.324125 -0.089065 -0.115629 76 0 153
0.118134 0.050720 0.287785 153 0 76
-0.316623 -0.089065 -0.262333 76 0 153
0.203566 -0.089065 0.507039 76 0 153
-0.074227 0.121471 -0.335612 0 127 127
0.112527 -0.076357 0.345611 153 0 76
0.010754 -0.089065 0.382063 76 0 153
0.420294 -0.029156 0.235011 76 0 153
0.425180 -0.073696 0.211798 76 0 153
0.414669 -0.067447 0.064648 76 0 153
0.362235 -0.173522 0.461223 153 0 76
0.266516 0.322300 -0.337669 76 153 0
0.146841 0.050720 -0.208488 153 0 76
-0.010713 -0.089065 0.093950 76 0 153
-0.254125 -0.076357 0.097517 153 0 76
-0.090679 -0.089065 -0.065890 76 0 153
-0.377515 -0.062459 -0.003034 153 0 76
0.102900 -0.031080 0.524145 76 0 153
-0.117893 -0.089065 0.099579 76 0 153
-0.257326 -0.089065 0.300587 76 0 153
-0.292815 0.540995 -0.345382 0 127 127
-0.352405 -0.267399 0.391600 76 0 153
0.239195 -0.213670 -0.263971 76 153 0
-0.310463 -0.044511 0.506634 153 0 76
0.265220 0.152530 -0.322056 0 255 0
-0.039401 0.050720 -0.218132 153 0 76
0.371798 0.026334 0.451280 153 0 76
0.003420 -0.058069 -0.140586 76 0 153
-0.284595 -0.746959 -0.297104 0 127 127
0.394819 -0.029651 -0.129931 76 0 153
0.305472 -0.325107 0.388867 153 0 76
0.057320 0.217306 -0.352099 76 153 0
-0.063055 0.331152 -0.351852 76 153 0
-0.242492 0.050720 0.452757 153 0 76
-0.099041 -0.089065 0.029905 76 0 153
0.175699 0.163552 -0.330433 0 127 127
-0.233190 0.050720 0.182078 153 0 76
0.272160 -0.089065 0.126466 76 0 153
-0.108520 0.561309 -0.349961 76 153 0
0.200966 -0.089065 0.013776 76 0 153
0.205754 0.125546 -0.342454 0 127 127
0.060913 0.050720 0.289395 153 0 76
0.348083 0.042512 0.471435 153 0 76
-0.209553 -0.089065 0.364164 76 0 153
-0.325686 -0.133492 -0.282567 0 127 127
0.365258 -0.076357 0.212733 153 0 76
-0.325858 0.474758 -0.313283 0 127 127
-0.218261 -0.076357 -0.079830 153 0 76
-0.059975 0.050720 0.208491 153 0 76
0.096932 -0.089065 0.005437 76 0 153
-0.079132 0.040442 0.471285 153 0 76
-0.081127 0.050720 -0.109602 153 0 76
0.378990 -0.061318 0.474461 153 0 76
-0.111461 0.115767 -0.365832 0 127 127
-0.284351 0.262000 -0.350575 0 127 127
0.330982 -0.089065 -0.248711 76 153 0
-0.328313 -0.069085 -0.312354 153 0 76
-0.044601 0.158917 -0.323386 76 153 0
-0.131615 -0.076357 -0.066067 153 0 76
0.071546 0.143329 -0.331103 76 153 0
-0.164792 -0.089065 0.185911 76 0 153
0.229642 0.597210 -0.309721 76 153 0
-0.261062 0.468889 -0.337496 76 153 0
-0.181375 -0.076357 0.222466 153 0 76
-0.328154 0.451418 -0.344699 0 127 127
-0.288662 -0.591214 0.412271 76 0 153
-0.114531 0.219967 -0.349710 76 153 0
0.140148 -0.055915 0.508519 153 0 76
-0.392102 -0.089065 0.477663 76 0 153
0.399389 -0.039216 0.207448 153 0 76
-0.108181 -0.076357 -0.320031 153 0 76
0.368751 0.049891 0.413706 153 0 76
-0.289228 -0.551134 0.444932 76 0 153
0.281814 -0.857858 -0.235062 76 153 0
0.289867 0.050720 0.305144 153 0 76
0.368302 -0.470104 0.437680 153 0 76
-0.303157 -0.766024 -0.241348 0 127 127
-0.271196 -0.403217 -0.223791 0 127 127
0.057825 -0.063586 0.508519 153 0 76
0.056048 -0.076357 0.086481 76 0 153
-0.173571 -0.089065 -0.080917 76 0 153
-0.285670 -0.558647 0.418185 76 0 153
0.022036 0.465914 -0.352588 76 153 0
-0.310250 -0.247516 -0.230458 0 127 127
0.211094 0.760701 -0.344328 0 127 127
-0.037911 -0.005930 -0.330190 153 0 76
0.055443 0.050720 0.395553 153 0 76
0.103749 -0.089065 -0.219332 76 0 153
0.017801 0.663185 -0.320879 76 153 0
0.387510 -0.076357 0.460024 153 0 76
0.109402 0.050720 -0.224282 153 0 76
-0.148310 0.050720 -0.203597 153 0 76
-0.146504 -0.076357 0.416513 153 0 76
-0.168732 0.050720 0.056493 153 0 76
-0.426751 -0.036362 0.421782 76 0 153
0.342712 0.038799 -0.277126 153 0 76
-0.200312 -0.089065 0.334205 76 0 153
0.093806 0.352703 -0.319089 76 153 0
0.294513 -0.225209 0.457658 153 0 76
-0.382301 -0.014774 0.462668 153 0 76
0.172097 -0.089065 0.346873 76 0 153
0.132030 0.679494 -0.349239 76 153 0
-0.264118 0.050720 0.354697 153 0 76
-0.028864 -0.076357 -0.144110 153 0 76
0.285523 -0.292064 0.414189 153 0 76
-0.330078 -0.076357 -0.048073 153 0 76
0.230924 0.175146 -0.325590 0 127 127
-0.301572 -0.769686 0.450838 76 0 153
0.175926 0.000387 -0.330190 153 0 76
-0.133947 0.589169 -0.348631 76 153 0
0.253748 -0.706752 -0.270779 76 153 0
0.192148 0.338249 -0.345067 76 153 0
0.078973 -0.076357 0.367071 153 0 76
0.377119 -0.076357 -0.097796 153 0 76
0.003420 -0.044166 0.160330 76 0 153
0.385010 -0.076357 0.086145 76 0 153
-0.328094 0.595196 -0.312939 0 127 127
-0.042305 -0.076357 -0.203124 76 0 153
-0.128455 -0.076357 -0.274606 153 0 76
-0.124521 0.050720 -0.111794 153 0 76
-0.227944 0.008790 -0.330154 153 0 76
-0.197698 -0.076357 0.091612 153 0 76
-0.381298 -0.076357 0.414375 153 0 76
0.080437 -0.089065 -0.313386 76 0 153
-0.112247 0.019896 0.495431 153 0 76
0.311524 -0.585076 0.459172 153 0 76
-0.003115 0.050720 -0.031687 153 0 76
-0.372445 0.031446 0.300196 153 0 76
-0.382440 0.006780 0.065914 153 0 76
0.097315 0.050720 0.070610 153 0 76
0.153531 -0.089065 0.505895 76 0 153
-0.333519 -0.076357 0.170797 153 0 76
-0.071619 -0.089065 0.396705 76 0 153
0.073124 0.255394 -0.351717 76 153 0
-0.357526 -0.089065 -0.253105 76 0 153
-0.128859 0.050720 0.426833 153 0 76
0.255471 0.078895 -0.328430 0 255 0
-0.344701 -0.036485 -0.295089 153 0 76
-0.334420 -0.089065 0.081534 76 0 153
0.015539 -0.076357 0.019331 153 0 76
0.003420 -0.046570 0.017446 76 0 153
-0.121049 0.050720 0.227334 153 0 76
0.268616 0.050720 -0.099899 153 0 76
-0.176469 0.183496 -0.361674 0 127 127
0.302527 -0.095129 0.382871 153 0 76
0.044361 0.396627 -0.352279 76 153 0
0.003420 -0.047820 0.492048 76 0 153
0.278508 -0.076357 0.331771 153 0 76
-0.234246 -0.254202 -0.272141 0 127 127
0.400404 -0.087980 -0.135065 76 0 153
0.143096 0.114893 -0.364465 0 127 127
-0.309334 -0.196305 0.472066 76 0 153
0.060930 -0.076357 -0.029353 153 0 76
0.305919 -0.089065 -0.127814 76 0 153
-0.013062 0.291320 -0.320848 76 153 0
0.027618 0.199399 -0.352511 76 153 0
0.260666 0.050720 0.443019 153 0 76
0.240402 -0.076357 -0.255675 153 0 76
0.039525 -0.089065 -0.262209 76 0 153
0.179460 -0.076357 -0.276404 153 0 76
-0.419201 -0.031265 0.284480 76 0 153
-0.302164 0.662349 -0.319590 0 127 127
-0.273403 -0.121658 0.417177 76 0 153
-0.336012 -0.248923 0.381787 76 0 153
-0.176963 0.694165 -0.326212 0 127 127
-0.239705 0.730429 -0.326055 0 127 127
-0.371529 -0.049452 -0.086839 153 0 76
0.119544 0.557144 -0.318019 76 153 0
0.036129 0.050720 -0.200304 153 0 76
-0.126852 0.670691 -0.349124 76 153 0
-0.330300 -0.242705 0.471691 76 0 153
0.266834 -0.076357 -0.187142 153 0 76
0.292753 0.180106 -0.318599 0 255 0
-0.344378 -0.089065 0.283934 76 0 153
-0.114311 -0.076357 -0.035417 153 0 76
-0.023883 -0.089065 0.386220 76 0 153
-0.266796 0.534281 -0.336777 76 153 0
0.136888 0.044357 -0.288355 153 0 76
-0.266651 -0.089065 -0.127621 76 0 153
0.379246 -0.076357 0.171387 153 0 76
-0.310885 0.050720 -0.235724 153 0 76
0.249249 -0.424208 -0.282696 76 153 0
-0.004374 0.050720 0.086365 153 0 76
-0.362544 0.044597 0.404850 153 0 76
0.149336 -0.089065 -0.261571 76 0 153
-0.258026 0.337702 -0.306497 76 153 0
-0.229883 -0.089065 -0.222886 76 0 153
0.351965 -0.089065 0.446582 76 0 153
-0.251324 -0.089065 0.357505 76 0 153
-0.168094 0.050720 0.328423 153 0 76
0.254906 -0.089065 -0.302673 76 0 153
0.052070 -0.089065 -0.130375 76 0 153
-0.097281 0.354941 -0.350428 76 153 0
0.196394 0.050720 -0.246821 153 0 76
0.143938 0.050170 0.466218 153 0 76
0.222233 -0.089065 0.245412 76 0 153
0.352444 0.026049 -0.164588 153 0 76
-0.205350 0.250721 -0.343188 76 153 0
0.003420 -0.056891 0.216929 76 0 153
-0.069219 0.050720 0.348348 153 0 76
0.284853 0.308167 -0.332006 0 127 127
-0.304838 0.021258 0.503684 153 0 76
-0.350585 -0.613880 0.450063 76 0 153
0.358970 -0.773270 0.440317 153 0 76
-0.179174 0.580217 -0.313724 76 153 0
0.050719 0.016096 0.499897 153 0 76
0.364174 -0.419045 0.449264 153 0 76
-0.385077 -0.042001 -0.253273 76 0 153
0.224255 0.572342 -0.342014 76 153 0
-0.295293 -0.089065 0.369351 153 0 76
0.047983 0.205936 -0.320459 76 153 0
0.137437 -0.078287 0.533934 76 0 153
0.365308 0.001128 -0.262176 153 0 76
-0.235964 -0.264619 -0.251392 0 127 127
0.364997 -0.445928 0.405516 153 0 76
0.260635 0.261919 -0.354401 0 127 127
-0.412730 -0.025704 0.325509 76 0 153
0.256616 -0.089065 -0.002710 76 0 153
-0.126930 -0.089065 -0.006672 153 0 76
0.277740 -0.089065 -0.070301 76 0 153
0.218467 0.286440 -0.342577 76 153 0
-0.306664 0.404915 -0.331779 0 127 127
-0.062762 -0.076357 -0.096787 153 0 76
0.115498 -0.089065 -0.006600 153 0 76
-0.015171 0.476639 -0.352589 76 153 0
-0.084931 0.628998 -0.350942 76 153 0
-0.300531 -0.214775 -0.222975 0 127 127
-0.258698 0.158043 -0.322016 127 127 0
0.041286 0.341449 -0.320552 76 153 0
-0.269656 0.420003 -0.336418 76 153 0
-0.050696 -0.035105 -0.330190 153 0 76
-0.095330 -0.089065 -0.164982 76 0 153
-0.357074 0.368194 -0.340257 0 127 127
-0.215821 -0.089065 0.215017 76 0 153
0.394794 -0.083993 -0.213603 76 0 153
-0.073095 0.050720 0.270408 153 0 76
0.191602 -0.076357 0.377005 153 0 76
-0.256027 -0.045578 -0.355605 127 127 0
0.230232 0.050720 0.416879 153 0 76
-0.134441 0.043233 -0.307046 153 0 76
-0.257160 -0.089065 0.326690 76 0 153
0.275688 -0.689622 -0.297094 76 153 0
0.214699 0.524644 -0.342944 76 153 0
-0.184102 0.142817 -0.361145 0 127 127
0.301834 -0.076357 0.240766 153 0 76
0.369645 -0.026328 0.500019 76 0 153
-0.187431 -0.089065 0.074354 76 0 153
0.303679 -0.457547 0.394998 153 0 76
0.367974 -0.089065 0.105386 76 0 153
0.207243 -0.089065 -0.315568 153 0 76
0.260063 0.368374 -0.338478 76 153 0
0.069228 0.397449 -0.320110 76 153 0
-0.302055 -0.406470 -0.300827 0 127 127
0.077629 0.050720 0.118753 153 0 76
0.101188 -0.089065 0.390449 76 0 153
-0.318699 -0.089065 0.224367 76 0 153
-0.306140 -0.089065 -0.100701 76 0 153
0.397837 0.020933 0.389027 153 0 76
0.351761 -0.550411 0.395477 153 0 76
0.035650 0.501974 -0.320631 76 153 0
0.003420 -0.027549 0.366333 76 0 153
0.237208 -0.076357 -0.106811 153 0 76
0.254665 -0.076357 0.024938 153 0 76
-0.221235 -0.089065 -0.291677 76 0 153
-0.371451 -0.089065 0.377474 76 0 153
-0.150716 -0.076357 -0.112171 153 0 76
0.331261 -0.217239 -0.250558 76 153 0
0.324933 0.556556 -0.314475 0 127 127
0.230874 -0.076357 -0.052267 153 0 76
0.333125 -0.517648 0.387590 153 0 76
-0.341981 -0.076357 0.145924 153 0 76
-0.395058 -0.013040 0.242573 153 0 76
0.265422 0.050720 0.304105 153 0 76
-0.206193 -0.076357 0.301893 153 0 76
-0.076600 -0.076357 -0.007258 153 0 76
-0.387747 -0.044573 -0.216500 76 0 153
-0.046200 0.374264 -0.320391 76 153 0
-0.026162 0.203494 -0.320665 76 153 0
0.255925 -0.773634 -0.256190 76 153 0
-0.192268 0.383691 -0.312692 76 153 0
0.365196 -0.483679 0.408411 153 0 76
0.424946 -0.029361 0.296691 76 0 153
-0.089606 -0.089065 -0.272292 76 0 153
0.200475 0.482510 -0.312559 76 153 0
-0.239121 -0.366884 -0.251095 0 127 127
-0.251744 -0.098571 -0.223492 0 127 127
-0.239596 0.292727 -0.309880 76 153 0
-0.149790 0.613417 -0.347532 76 153 0
-0.232014 -0.165899 -0.274215 0 127 127
0.004552 0.050720 0.139161 153 0 76
-0.187011 0.050720 0.434044 153 0 76
-0.325114 -0.089065 0.464120 76 0 153
0.230512 0.692764 -0.357399 0 127 127
-0.030983 0.333339 -0.320600 76 153 0
-0.054078 -0.089065 0.133552 76 0 153
0.140615 0.384857 -0.348643 76 153 0
-0.069408 -0.076357 0.344534 153 0 76
0.338679 0.050720 0.061620 153 0 76
0.372380 0.373617 -0.313526 0 127 127
-0.186933 0.538064 -0.313185 76 153 0
-0.362096 -0.416006 0.439699 76 0 153
0.402414 0.017445 0.282280 153 0 76
0.151250 0.094954 -0.345847 0 127 127
-0.256921 -0.089065 0.417518 76 0 153
0.204172 0.455134 -0.343968 76 153 0
0.264685 -0.089065 -0.035026 76 0 153
0.288185 -0.076357 -0.117302 153 0 76
0.003420 -0.025929 -0.164223 76 0 153
-0.280449 -0.410992 0.426020 76 0 153
0.394123 -0.031446 -0.089911 76 0 153
-0.237760 -0.224237 -0.244164 0 127 127
-0.246537 0.050720 -0.217083 153 0 76
0.305381 -0.006602 -0.327353 153 0 76
0.021585 -0.089065 -0.019034 76 0 153
-0.268780 -0.076357 -0.183423 153 0 76
0.354489 -0.076357 0.341088 153 0 76
0.195845 -0.089065 0.260103 76 0 153
0.357571 0.507252 -0.341231 0 127 127
0.105248 0.045338 -0.303421 153 0 76
0.127041 0.022961 -0.325536 153 0 76
-0.357991 -0.565563 0.439797 76 0 153
-0.323543 0.630086 -0.328527 0 127 127
0.173846 -0.076357 -0.128214 153 0 76
0.160950 0.050720 -0.088632 153 0 76
-0.053842 0.422835 -0.352053 76 153 0
-0.278522 -0.278828 0.438589 76 0 153
0.346062 -0.166242 0.471243 153 0 76
-0.256475 -0.857880 -0.265359 0 127 127
0.098273 0.374113 -0.318903 76 153 0
0.003420 -0.045030 0.400741 76 0 153
0.392947 -0.048484 0.117257 153 0 76
0.249995 -0.346258 -0.288778 76 153 0
-0.037711 0.050720 0.406241 153 0 76
0.252674 -0.654539 -0.273870 76 153 0
-0.336351 0.050720 0.409649 153 0 76
0.323891 -0.430366 -0.246747 76 153 0
-0.179866 0.020431 0.505102 153 0 76
0.288727 -0.361393 0.440799 153 0 76
0.281302 -0.168897 0.419318 153 0 76
-0.413536 -0.089065 0.352040 76 0 153
0.200749 0.540204 -0.312532 76 153 0
0.303177 -0.383090 -0.225812 76 153 0
-0.299595 -0.628396 0.399017 76 0 153
0.273330 -0.339823 -0.306856 76 153 0
0.317422 0.318549 -0.315512 0 127 127
0.176580 -0.089065 -0.205699 76 0 153
-0.293089 -0.726731 0.441676 76 0 153
-0.286223 -0.696896 -0.230985 0 127 127
-0.206553 -0.076357 0.176536 153 0 76
0.186229 -0.076357 0.240966 153 0 76
0.368032 0.352193 -0.331225 0 127 127
-0.248648 -0.530451 -0.242375 0 127 127
-0.248173 -0.076357 -0.155689 153 0 76
-0.267330 0.019995 -0.352717 127 127 0
-0.047060 0.050720 0.269775 153 0 76
-0.404618 -0.008491 0.407243 153 0 76
0.129397 -0.076357 0.251768 153 0 76
-0.257932 -0.076357 -0.070425 76 0 153
-0.256203 -0.671923 -0.239226 0 127 127
0.280329 0.127002 -0.351943 0 255 0
0.289829 0.225907 -0.318968 0 127 127
0.327083 -0.076357 -0.094048 76 0 153
0.048681 0.018618 -0.318604 153 0 76
0.234938 0.050720 -0.077034 153 0 76
-0.147944 0.530327 -0.315891 76 153 0
-0.393552 -0.076357 0.221961 153 0 76
0.205540 0.050720 0.229030 153 0 76
-0.354567 -0.661421 0.411367 76 0 153
-0.224206 -0.089065 0.018437 76 0 153
0.370464 -0.089065 0.494819 76 0 153
-0.299732 -0.076357 0.462574 153 0 76
0.331910 -0.076357 0.001940 153 0 76
-0.123575 0.050720 0.003298 153 0 76
-0.324681 0.050720 0.069968 153 0 76
-0.072739 0.260254 -0.351449 76 153 0
0.277987 -0.368967 -0.307185 76 153 0
-0.285850 0.028487 -0.350389 127 127 0
0.078516 -0.089065 -0.145729 76 0 153
0.203211 0.039679 0.472182 153 0 76
0.327490 0.031081 -0.346016 0 255 0
-0.175977 0.585824 -0.345715 76 153 0
-0.217450 0.050720 -0.105579 153 0 76
0.192312 -0.089065 -0.039159 76 0 153
0.041032 -0.076357 -0.010076 153 0 76
0.081348 -0.089065 0.332699 76 0 153
0.003420 -0.062175 -0.232509 76 0 153
-0.313281 -0.089065 -0.171882 76 0 153
-0.138297 -0.076357 0.497206 153 0 76
0.279548 -0.076357 -0.088031 153 0 76
-0.054536 0.050720 0.028962 153 0 76
-0.319613 -0.046914 -0.318393 153 0 76
-0.376758 0.027936 0.091559 153 0 76
-0.158470 0.050720 -0.232751 153 0 76
-0.306670 0.481090 -0.337902 76 153 0
0.344728 0.079288 -0.335601 0 255 0
0.369492 0.007958 0.483272 153 0 76
0.411911 -0.025926 0.450256 76 0 153
0.125697 -0.076357 0.503550 153 0 76
0.175701 0.050720 -0.238822 153 0 76
-0.022135 -0.089065 0.331248 76 0 153
0.055839 0.248235 -0.320349 76 153 0
-0.313895 0.050720 0.323142 153 0 76
-0.348509 -0.446993 0.457893 76 0 153
-0.123522 -0.089065 0.230867 76 0 153
0.274630 -0.802819 -0.235834 76 153 0
-0.043830 0.801591 -0.368185 0 127 127
-0.247852 0.454249 -0.339053 76 153 0
-0.283533 -0.076357 -0.308903 153 0 76
-0.430185 -0.061135 0.406752 76 0 153
0.318375 -0.064120 -0.349917 76 0 153
0.258155 -0.447838 -0.294410 76 153 0
0.049530 0.481767 -0.352207 76 153 0
-0.208305 0.050720 -0.026280 153 0 76
0.243321 -0.275203 -0.279427 76 153 0
-0.210698 -0.089065 0.247175 76 0 153
0.257902 0.050720 -0.269831 153 0 76
-0.246875 -0.384242 -0.291849 0 127 127
0.394259 -0.029155 -0.061032 76 0 153
0.332207 0.624362 -0.313358 0 127 127
-0.413917 -0.053172 0.149873 76 0 153
0.289147 -0.012238 -0.350835 0 255 0
-0.010499 0.011132 -0.327402 153 0 76
-0.149257 0.773955 -0.363563 0 127 127
0.290067 -0.089065 0.296965 76 0 153
-0.312304 -0.089065 0.010467 76 0 153
-0.219054 0.264561 -0.312148 76 153 0
0.173076 0.365595 -0.346391 76 153 0
-0.354114 -0.076357 -0.152390 153 0 76
0.127710 -0.076357 -0.117102 153 0 76
0.174826 -0.076357 -0.308822 153 0 76
-0.158370 -0.076357 0.447011 76 0 153
0.049506 -0.089065 -0.093038 76 0 153
-0.079360 -0.089065 0.163823 76 0 153
-0.225372 -0.076357 0.265917 153 0 76
0.378920 0.452711 -0.321478 0 127 127
0.268924 -0.089065 -0.234633 76 0 153
-0.202946 0.612340 -0.343422 76 153 0
-0.398802 -0.085851 -0.061726 76 0 153
0.312497 0.045184 -0.295878 153 0 76
0.296233 0.375407 -0.310434 76 153 0
-0.338752 0.368591 -0.311302 0 127 127
0.241105 -0.076357 -0.031342 76 0 153
0.003420 -0.069894 -0.163355 76 0 153
0.412127 -0.089065 0.297382 76 0 153
0.052039 0.517834 -0.352173 76 153 0
0.295003 -0.089065 0.276060 76 0 153
-0.195611 -0.089065 0.276215 153 0 76
0.401866 -0.089065 -0.066817 76 0 153
-0.428063 -0.075528 0.347915 76 0 153
0.356452 -0.108824 0.384067 153 0 76
0.288052 -0.089065 0.467195 76 0 153
0.058448 0.036744 -0.315409 153 0 76
0.320837 -0.076357 -0.299304 76 0 153
0.003420 -0.035991 0.467285 76 0 153
0.067105 -0.089065 -0.177055 76 0 153
0.335261 -0.089065 -0.181276 76 0 153
0.376198 -0.215847 0.428889 153 0 76
-0.029499 -0.076357 -0.221073 153 0 76
0.093912 -0.076357 0.224523 153 0 76
-0.354810 -0.089065 -0.319653 76 0 153
-0.327820 0.430398 -0.344750 0 127 127
-0.005574 0.108907 -0.336946 0 127 127
0.077174 -0.076357 -0.014584 153 0 76
0.282087 -0.089065 0.006579 153 0 76
0.038523 0.048684 0.461599 153 0 76
-0.293434 -0.115753 -0.313383 0 127 127
0.192167 -0.089065 0.061811 76 0 153
-0.389703 -0.089065 0.040800 76 0 153
0.263980 -0.681200 -0.238817 76 153 0
-0.094652 0.050720 0.050863 153 0 76
-0.340032 -0.511375 0.461528 76 0 153
0.362003 -0.089065 0.180822 76 0 153
-0.163041 -0.089065 -0.220155 76 0 153
-0.257299 -0.089065 0.133844 76 0 153
0.096830 -0.076357 0.480932 153 0 76
-0.362656 -0.489569 0.426058 76 0 153
0.227978 0.421374 -0.341652 76 153 0
-0.090544 0.050720 0.112135 153 0 76
-0.026945 0.125183 -0.368419 0 127 127
0.411623 -0.089065 0.154113 76 0 153
0.210790 0.020280 0.494980 153 0 76
-0.306817 0.617761 -0.315984 0 127 127
-0.081934 0.450335 -0.351066 76 153 0
0.105897 -0.053073 0.533934 76 0 153
0.235691 0.050720 0.278496 153 0 76
0.114152 0.050055 0.466862 153 0 76
-0.134611 -0.089065 0.515359 76 0 153
-0.220585 0.237031 -0.320382 76 153 0
-0.030955 -0.089065 -0.176835 76 0 153
-0.091428 -0.042400 -0.330190 153 0 76
-0.259338 0.077818 -0.321935 127 127 0
0.324904 0.047730 -0.192524 153 0 76
0.157907 0.170063 -0.335354 0 127 127
-0.243476 -0.015632 -0.335568 127 127 0
0.263911 -0.385308 -0.228985 76 153 0
-0.158784 0.050720 0.348657 153 0 76
-0.285420 0.063077 -0.350443 127 127 0
0.191850 0.050720 0.426020 153 0 76
0.269430 0.050720 -0.240665 153 0 76
-0.128288 0.050720 0.267416 153 0 76
-0.050975 0.692709 -0.352093 76 153 0
0.080325 0.050720 -0.129585 153 0 76
-0.383745 -0.055434 0.498372 76 0 153
-0.020380 0.498715 -0.352517 76 153 0
0.309073 -0.219564 0.383572 153 0 76
0.127924 -0.076357 0.288548 153 0 76
-0.400331 -0.089065 -0.024018 76 0 153
0.334054 0.402444 -0.313074 0 127 127
-0.385507 0.018588 0.146956 153 0 76
0.281170 0.050720 0.109862 153 0 76
-0.306145 0.050720 -0.088943 153 0 76
0.003420 -0.071829 0.326582 76 0 153
-0.309450 0.283215 -0.315654 0 127 127
0.247868 -0.251456 -0.239947 76 153 0
-0.074948 -0.076357 0.085034 153 0 76
0.036271 -0.076357 0.355877 153 0 76
0.150749 -0.076357 -0.197515 153 0 76
-0.271831 0.637707 -0.320370 0 127 127
0.302777 -0.564733 0.399539 153 0 76
-0.372337 0.421762 -0.306143 0 127 127
-0.301290 -0.757320 -0.289488 0 127 127
-0.289074 -0.602242 -0.300574 0 127 127
-0.327705 -0.089065 0.402003 76 0 153
0.333431 -0.089065 0.201742 76 0 153
-0.082334 0.412091 -0.351050 76 153 0
-0.280760 -0.510330 -0.225498 0 127 127
-0.082041 0.141062 -0.356112 0 127 127
0.335335 -0.089846 -0.278756 76 0 153
0.295465 -0.800259 -0.295066 76 153 0
-0.012159 0.451803 -0.352630 76 153 0
0.201242 -0.067143 -0.355605 76 0 153
0.313580 0.050720 0.343639 153 0 76
-0.056280 0.050720 -0.095958 153 0 76
0.374280 0.042738 0.168888 153 0 76
0.394966 -0.053076 0.145527 153 0 76
0.159339 0.264759 -0.347344 76 153 0
-0.189892 -0.076357 -0.247410 153 0 76
0.281980 0.509572 -0.305665 76 153 0
0.404794 -0.022628 0.283116 153 0 76
0.054502 0.796386 -0.368132 0 127 127
-0.300547 -0.424262 0.390958 76 0 153
-0.307885 -0.705188 -0.244892 0 127 127
0.403493 -0.083223 0.485386 76 0 153
0.349755 0.322217 -0.342432 0 127 127
0.350479 -0.076357 0.039982 76 0 153
-0.351307 -0.750306 0.409841 76 0 153
-0.243640 -0.612788 -0.263281 0 127 127
0.173629 0.403536 -0.314583 76 153 0
0.259668 -0.857462 -0.275738 76 153 0
0.400609 -0.005854 0.224528 153 0 76
-0.325218 -0.612218 0.462916 76 0 153
0.357349 -0.671227 0.447807 153 0 76
0.139454 0.162218 -0.330308 76 153 0
0.334305 -0.025526 -0.314864 153 0 76
0.323449 0.491021 -0.346473 0 127 127
0.132433 -0.089065 -0.228573 76 0 153
-0.293382 -0.198070 -0.310962 0 127 127
0.315479 -0.511373 -0.237919 76 153 0
0.313796 0.256262 -0.315967 0 127 127
-0.309172 -0.076357 0.168395 153 0 76
0.257451 -0.089065 0.293594 76 0 153
0.009678 0.531621 -0.352760 76 153 0
-0.235638 0.647718 -0.354674 0 127 127
-0.060514 0.068585 -0.357861 0 127 127
0.309303 0.050720 0.185993 153 0 76
0.099160 -0.076357 -0.182739 76 0 153
0.290408 -0.236256 -0.311564 76 153 0
0.119965 -0.076357 -0.091963 153 0 76
-0.398607 -0.000187 0.292264 153 0 76
-0.119906 0.760754 -0.333712 0 127 127
0.352060 -0.445295 0.460470 153 0 76
0.344720 -0.011396 0.498211 153 0 76
-0.305993 -0.077526 0.533122 76 0 153
-0.168012 0.050720 0.158619 153 0 76
-0.101492 0.080569 -0.359798 0 127 127
0.132653 -0.076357 0.127942 153 0 76
0.307736 0.556502 -0.348496 0 127 127
0.078910 0.050720 0.310394 153 0 76
0.225501 -0.076357 0.459907 153 0 76
-0.386287 -0.089065 0.094018 76 0 153
0.385577 0.041961 0.310441 153 0 76
0.042980 0.351914 -0.352298 76 153 0
0.063315 0.560530 -0.352016 76 153 0
-0.070108 0.050720 0.093215 153 0 76
-0.166044 0.411622 -0.314635 76 153 0
